ply
format ascii 1.0
comment Created by Open3D
element vertex 1070
property double x
property double y
property double z
property double nx
property double ny
property double nz
property uchar red
property uchar green
property uchar blue
end_header
-19.6045 228.597 -94.6768 0 0 1 165 166 170
-24.0499 243.445 -94.8019 0 0 1 169 170 175
-20.6281 241.209 -94.6079 0 0 1 161 165 168
-26.586 227.741 -94.6484 0 0 1 187 190 146
-5.20932 233.571 -86.4418 0 0 1 89 105 55
-17.9762 242.907 -94.5401 0 0 1 159 160 162
-7.82385 221.355 -94.5537 0 0 1 154 152 121
-27.796 227.409 -94.8344 0 0 1 167 175 123
-9.34036 219.072 -94.6411 0 0 1 129 124 96
-22.9684 225.421 -94.5939 0 0 1 107 171 197
-8.53471 218.758 -94.6439 0 0 1 134 132 99
-7.60655 234.48 -87.1575 0 0 1 83 98 61
-7.20623 239.919 -94.5777 0 0 1 94 87 75
-16.003 241.959 -94.6111 0 0 1 200 193 191
-9.2536 241.595 -94.6033 0 0 1 36 41 26
-14.9569 242.348 -94.5005 0 0 1 133 131 93
-9.60052 223.222 -94.5785 0 0 1 152 143 108
-28.2301 223.78 -94.6418 0 0 1 149 152 146
-25.8952 240.073 -94.6148 0 0 1 177 162 144
-26.5697 218.851 -94.5488 0 0 1 220 217 217
-18.5497 226.257 -94.592 0 0 1 166 167 172
-26.3651 215.058 -94.5263 0 0 1 170 172 171
-24.6373 242 -94.7305 0 0 1 171 180 183
-23.503 222.159 -94.6016 0 0 1 167 158 125
-7.28276 224.941 -94.5508 0 0 1 150 142 109
-25.383 232.003 -94.5636 0 0 1 167 169 125
-8.48882 230.863 -94.6781 0 0 1 166 152 115
-24.5444 219.474 -94.5659 0 0 1 160 160 162
-15.818 224.615 -94.6699 0 0 1 161 163 167
-4.17186 233.095 -86.6199 0 0 1 107 121 72
-17.5579 225.121 -94.6009 0 0 1 164 167 171
-26.4003 230.497 -94.5938 0 0 1 188 191 154
-23.6378 232.513 -94.5373 0 0 1 220 224 224
-25.8703 229.635 -94.6001 0 0 1 199 200 167
-17.3196 224.002 -94.5037 0 0 1 164 166 171
-9.67336 232.653 -94.5973 0 0 1 157 146 111
-27.619 226.006 -94.7911 0 0 1 167 175 150
-11.3013 235.572 -94.5547 0 0 1 174 164 128
-17.4912 244.232 -94.5361 0 0 1 161 164 165
-4.10586 225.152 -94.6371 0 0 1 140 136 97
-13.6637 218.185 -94.5713 0.198436 -0.186774 0.962153 162 163 166
-15.3655 222.617 -94.7622 0 0 1 173 180 186
-6.90941 234.296 -86.5733 0 0 1 71 88 53
-18.0895 224.674 -94.6119 0 0 1 165 167 172
-11.0704 226.579 -94.5205 0 0 1 139 137 98
-14.1898 214.403 -94.6645 0 0 1 163 166 170
-22.8973 214.934 -94.5929 0 0 1 166 167 168
-25.4838 220.643 -94.5699 0 0 1 160 159 156
-6.23813 232.716 -94.6017 0 0 1 154 157 135
-4.93466 238.244 -87.1703 0 0 1 30 39 24
-15.4157 223.522 -94.7833 0 0 1 165 166 170
-6.63418 219.95 -94.5451 0 0 1 153 147 115
-27.3645 239.859 -94.5826 0 0 1 182 181 148
-20.0153 226.753 -94.5582 0 0 1 163 166 171
-6.87777 242.71 -94.5226 0 0 1 110 108 101
-10.4082 238.702 -94.093 0 0 1 186 185 193
-14.4355 229.956 -94.612 0 0 1 156 156 159
-22.7749 228.269 -94.5398 0 0 1 221 218 223
-24.3947 216.778 -94.6153 0 0 1 186 183 180
-21.1199 221.851 -94.5997 0 0 1 217 217 220
-25.3147 237.208 -94.7173 0 0 1 169 165 136
-27.7734 214.94 -94.5596 0 0 1 173 177 177
-20.9467 214.768 -94.547 0 0 1 173 173 178
-23.0225 242.546 -94.5054 0 0 1 165 170 171
-8.33817 228.928 -94.5457 0 0 1 169 157 124
-14.773 242.794 -94.471 0 0 1 178 171 140
-12.683 220.323 -94.5973 0 0 1 164 164 169
-23.4724 234.762 -94.6437 0 0 1 178 187 188
-18.2903 216.05 -94.4716 0 0 1 162 165 168
-15.5665 214.512 -94.6794 0 0 1 167 167 175
-4.44884 241.295 -94.5871 0 0 1 180 175 154
-16.7354 219.941 -94.5979 0 0 1 162 163 167
-5.3934 219.032 -94.6434 0 0 1 137 134 99
-17.6681 223.989 -94.5077 0 0 1 164 167 172
-6.57947 234.201 -94.423 -0.00120848 -0.0819671 0.996634 116 106 84
-27.7419 233.753 -94.6725 0 0 1 171 173 128
-15.4274 226.349 -94.6687 0 0 1 161 162 166
-21.9203 225.452 -94.4808 0 0 1 197 189 192
-15.9831 219.139 -94.5211 0 0 1 163 163 167
-15.7079 237.788 -94.6175 0 0 1 151 152 156
-28.8254 229.79 -94.5541 0 0 1 197 202 209
-25.4328 238.317 -94.6547 0 0 1 171 161 137
-25.3869 237.797 -94.5983 0 0 1 168 170 136
-14.4818 241.079 -94.5084 0 0 1 156 160 125
-27.7494 228.927 -94.7027 0 0 1 181 187 143
-21.1766 242.095 -94.6661 0 0 1 162 165 168
-10.2961 232.409 -94.6125 0 0 1 143 136 100
-20.3264 216.333 -94.5672 0 0 1 149 162 188
-19.3855 226.674 -94.5726 0 0 1 163 165 170
-10.7326 225.444 -94.5357 0 0 1 151 147 111
-26.4292 228.65 -94.6202 0 0 1 172 176 124
-23.5427 234.3 -94.6957 0 0 1 181 189 189
-21.2326 226.927 -94.6523 0 0 1 165 168 172
-23.9191 235.513 -94.6671 0 0 1 183 188 188
-13.5543 241.889 -94.5009 0 0 1 133 145 97
-25.2107 228.329 -94.6464 0 0 1 200 200 166
-17.715 238.174 -94.5255 0 0 1 169 174 178
-22.4589 226.769 -94.5447 0 0 1 220 220 224
-25.2269 218.001 -94.5276 0 0 1 187 183 181
-23.9605 233.155 -94.7267 0 0 1 214 215 215
-27.8411 243.045 -94.5923 0 0 1 179 179 138
-7.52499 238.182 -93.6988 0 0 1 138 204 228
-12.6344 238.413 -94.5192 0 0 1 151 150 110
-23.2623 217.821 -94.5387 0 0 1 170 170 173
-14.9605 229.526 -94.5894 0 0 1 163 163 166
-15.7473 230.652 -94.6332 0 0 1 167 167 170
-7.82424 223.65 -94.5664 0 0 1 159 158 125
-24.1396 233.162 -94.5844 0 0 1 206 201 195
-10.1873 219.458 -94.6699 0 0 1 125 117 98
-16.2198 217.697 -94.7187 0 0 1 169 170 175
-13.239 233.683 -94.5623 0 0 1 144 142 105
-15.6664 225.502 -94.5674 0 0 1 164 163 168
-25.9141 225.388 -94.651 0 0 1 175 179 141
-27.2723 233.17 -94.746 0 0 1 177 177 134
-10.9143 215.582 -94.6223 0 0 1 171 171 171
-5.4104 240.573 -94.5846 0 0 1 148 138 110
-26.2672 214.449 -94.6055 0 0 1 168 170 168
-8.6277 230.834 -94.5952 0 0 1 169 155 120
-16.8027 235.039 -94.6117 0 0 1 160 161 165
-17.0538 214.542 -94.4408 0 0 1 170 174 180
-8.98427 216.964 -94.6327 0 0 1 120 119 82
-18.0646 220.489 -94.6056 0 0 1 159 163 167
-5.67835 229.137 -94.6074 0 0 1 167 153 114
-17.816 224.56 -94.592 0 0 1 164 166 171
-8.39285 223.568 -94.5092 0 0 1 158 154 123
-11.5528 235.837 -94.5443 0 0 1 185 178 142
-5.65787 235.963 -85.7166 0 0 1 73 87 50
-16.1831 225.635 -94.5932 0 0 1 161 162 167
-21.8013 223.495 -94.5813 0 0 1 200 196 202
-13.097 219.967 -94.6372 0 0 1 164 165 170
-26.1013 233.837 -94.675 0 0 1 178 181 145
-5.8604 219.396 -94.5775 0 0 1 160 154 122
-14.663 227.487 -94.6047 0 0 1 162 161 164
-22.1093 238.292 -94.7817 0 0 1 165 165 169
-13.4132 232.655 -94.6152 0 0 1 146 136 110
-19.3937 230.206 -94.5713 0 0 1 163 162 167
-12.0039 242.259 -94.546 0 0 1 124 110 81
-22.2605 237.329 -94.6749 0 0 1 176 187 189
-7.61256 235.029 -86.5673 0 0 1 85 98 59
-8.22687 239.21 -94.4983 0 0 1 24 24 22
-11.5948 243.649 -94.0979 0 0 1 65 100 116
-5.4763 221.641 -94.6355 0 0 1 136 131 96
-8.50562 237.238 -94.3842 0 0 1 52 56 50
-5.65926 232.457 -87.7789 0 0 1 121 143 79
-20.8564 219.713 -94.5355 0 0 1 196 202 214
-4.44362 216.209 -94.6733 0 0 1 171 169 136
-11.9234 231.434 -94.5389 0 0 1 184 177 143
-13.0766 228.131 -94.7048 0 0 1 171 172 174
-7.2318 239.783 -94.5171 0 0 1 121 116 100
-25.2136 241.391 -94.5527 0 0 1 172 179 179
-23.4658 229.878 -94.6083 0 0 1 203 212 210
-10.3982 218.264 -94.6939 0 0 1 172 168 164
-27.1026 242.475 -94.682 0 0 1 160 164 118
-7.67086 236.833 -86.4069 0 0 1 75 87 49
-20.1063 241.988 -94.7595 0 0 1 164 166 170
-24.1098 244.366 -94.6573 0 0 1 164 169 172
-25.218 240.449 -94.6327 0 0 1 177 183 182
-4.85649 238.52 -89.1215 0 0 1 90 93 68
-26.198 240.308 -94.5914 0 0 1 153 146 106
-20.4325 225.484 -94.5174 0 0 1 166 168 173
-22.518 236.385 -94.601 0 0 1 177 187 190
-20.0237 234.309 -94.5877 0 0 1 175 184 186
-18.7481 235.113 -94.6013 0 0 1 171 175 180
-24.7648 223.373 -94.643 0 0 1 166 161 120
-12.3003 215.59 -94.5963 0 0 1 159 160 163
-28.7104 217.262 -94.534 0 0 1 167 167 171
-5.93898 224.273 -94.6227 0 0 1 160 152 117
-16.2022 237.125 -94.6621 0 0 1 160 160 165
-10.0078 238.704 -93.9581 0 0 1 164 178 172
-9.26044 230.17 -94.6348 0 0 1 151 141 107
-24.743 228.722 -94.5421 0 0 1 178 176 134
-20.4921 236.236 -94.5784 0 0 1 171 179 182
-8.58158 234.077 -94.5244 0 0 1 85 85 67
-21.083 244.202 -94.7515 0 0 1 164 168 171
-7.24475 221.349 -94.6171 0 0 1 157 151 121
-29.0699 227.681 -94.65 0 0 1 138 143 107
-15.6865 233.323 -94.5815 0 0 1 163 163 165
-10.1018 226.572 -94.6023 0 0 1 173 169 138
-10.5436 219.763 -94.6394 0 0 1 170 159 146
-26.4798 234.313 -94.5957 0 0 1 196 196 159
-28.6825 244.488 -94.592 0 0 1 160 166 123
-12.2548 227.767 -94.6494 0 0 1 140 129 104
-26.201 230.776 -94.6613 0 0 1 193 194 159
-14.0194 215.559 -94.6758 0 0 1 163 163 167
-21.7084 219.697 -94.5836 0 0 1 132 173 187
-26.2498 229.06 -94.6935 0 0 1 181 185 138
-6.89646 232.745 -94.5333 0 0 1 143 143 131
-18.0616 214.914 -94.4729 0 0 1 170 173 178
-4.69827 238.148 -87.5959 0 0 1 22 34 24
-10.5254 228.272 -94.5311 0 0 1 174 167 132
-5.58783 218.759 -94.5852 0 0 1 165 157 123
-18.998 236.982 -94.6289 0 0 1 168 177 179
-11.9319 232.395 -94.5223 0 0 1 151 143 109
-24.358 229.902 -94.5328 0 0 1 180 182 139
-24.0847 235.505 -94.7145 0 0 1 189 190 190
-4.68356 218.881 -94.6208 0 0 1 146 145 110
-24.1731 231.963 -94.6544 0 0 1 177 179 153
-5.77104 220.329 -94.5801 0 0 1 134 126 90
-28.4623 221.074 -94.5763 0 0 1 136 144 97
-27.0936 232.188 -94.7282 0 0 1 161 165 116
-8.85374 222.679 -94.527 0 0 1 164 154 124
-25.2613 236.918 -94.6082 0 0 1 168 163 135
-26.7288 226.6 -94.7421 0 0 1 195 198 158
-20.5229 235.997 -94.6745 0 0 1 173 183 185
-14.88 216.403 -94.501 0 0 1 162 164 168
-21.8843 234.134 -94.6609 0 0 1 178 188 190
-17.5603 227.669 -94.5613 0 0 1 163 165 169
-9.22672 241.01 -94.5585 0 0 1 43 49 30
-13.216 238.259 -94.58 0 0 1 169 162 128
-8.10787 217.577 -94.6221 0 0 1 133 130 102
-21.1711 238.915 -94.764 0 0 1 171 179 182
-7.67738 216.591 -94.5883 0 0 1 151 148 116
-17.5 233.105 -94.5998 0 0 1 160 160 164
-13.2256 230.966 -94.6617 0 0 1 168 158 142
-9.95185 243.799 -94.5694 0 0 1 29 32 25
-8.92883 224.161 -94.5304 0 0 1 157 151 120
-27.7786 239.356 -94.6667 0 0 1 156 162 114
-7.45888 238.225 -93.717 0 0 1 138 207 228
-17.4907 220.658 -94.5082 0 0 1 163 165 169
-26.5485 222.482 -94.6511 0 0 1 151 142 106
-25.3836 215.1 -94.5277 0 0 1 199 195 193
-19.5342 234.76 -94.6141 0 0 1 173 183 185
-7.13181 233.087 -94.2254 0 0 1 118 135 167
-25.8861 237.93 -94.5965 0 0 1 153 152 110
-23.8781 232.769 -94.6437 0 0 1 219 222 219
-10.7089 219.586 -94.6235 0 0 1 180 180 175
-4.34816 215.453 -94.6218 0.120378 0.107323 0.98691 161 156 128
-12.3242 214.918 -94.5542 0 0 1 163 162 165
-15.4307 238.098 -94.5605 0 0 1 166 165 167
-16.9426 223.015 -94.4786 0 0 1 165 167 171
-23.1681 236.316 -94.5461 0 0 1 178 188 190
-14.4115 244.033 -94.4986 0 0 1 164 161 125
-28.6084 232.454 -94.2026 0 0 1 216 229 216
-7.28904 231.374 -94.5938 0 0 1 166 148 112
-10.3463 235.576 -94.565 0 0 1 142 133 95
-6.45387 226.979 -94.581 0 0 1 167 154 118
-11.186 222.234 -94.6306 0 0 1 189 185 177
-22.8774 243.41 -94.676 0 0 1 159 162 166
-18.5554 235.889 -94.6301 0 0 1 175 181 184
-6.46799 219.838 -94.5879 0 0 1 147 145 113
-13.9421 216.008 -94.5249 0 0 1 160 163 166
-7.7401 221.687 -94.6004 0 0 1 136 132 100
-13.0475 216.16 -94.6445 0 0 1 162 163 166
-18.1961 215.165 -94.6425 0 0 1 163 166 171
-28.2315 241.443 -94.7295 0 0 1 159 162 124
-13.8084 217.804 -94.5855 0 0 1 163 162 166
-16.794 230.557 -94.5773 0 0 1 162 162 166
-16.0501 218.307 -94.5911 0 0 1 164 165 169
-11.0297 243.625 -93.8706 0 0 1 84 120 106
-13.1361 214.707 -94.5178 0 0 1 164 163 166
-15.5559 243.48 -94.7535 0 0 1 152 155 113
-21.8058 224.779 -94.5593 0 0 1 221 218 223
-9.74711 227.407 -94.5452 0 0 1 173 171 133
-14.7115 224.049 -94.5843 0 0 1 163 164 168
-17.2596 239.944 -94.6429 0 0 1 158 162 165
-7.59018 235.892 -86.4693 0 0 1 76 99 58
-24.7855 222.36 -94.5746 0 0 1 152 146 105
-16.5818 231.104 -94.5479 0 0 1 164 164 169
-28.2191 235.262 -94.688 0 0 1 158 164 119
-12.7412 243.677 -94.5113 0 0 1 133 138 94
-21.5523 243.4 -94.7637 0 0 1 172 176 180
-19.0388 232.893 -94.686 0 0 1 162 162 166
-20.2579 243.642 -94.6655 0 0 1 166 168 171
-26.1867 224.867 -94.6866 0 0 1 170 173 128
-17.1483 240.033 -94.6157 0 0 1 157 160 163
-22.2556 214.98 -94.518 0 0 1 166 167 169
-21.6867 242.698 -94.7887 0 0 1 164 165 170
-16.5588 232.287 -94.5811 0 0 1 162 163 167
-5.61498 235.515 -85.8929 0 0 1 76 91 50
-26.6127 222.499 -94.6093 0 0 1 151 142 106
-21.7904 214.833 -94.5663 0 0 1 171 172 174
-16.9129 229.085 -94.543 0 0 1 163 163 167
-15.2675 225.014 -94.7 0 0 1 162 161 166
-6.49302 239.964 -94.559 0 0 1 157 148 124
-10.6892 240.965 -94.0605 0 0 1 173 187 186
-19.1122 244.507 -94.716 0 0 1 162 164 166
-21.197 216.43 -94.5476 0 0 1 175 179 184
-15.0309 239.134 -94.564 0 0 1 156 144 120
-22.9954 228.396 -94.5229 0 0 1 219 221 226
-6.00424 235.195 -85.9545 0 0 1 92 110 70
-8.98946 217.504 -94.6128 0 0 1 120 126 82
-22.913 230.28 -94.5863 0 0 1 208 206 211
-28.0632 219.376 -94.556 -0.114046 0.0968532 0.988743 171 170 164
-26.737 237.701 -94.5637 0 0 1 169 171 128
-25.0056 215.597 -94.2091 0 0 1 113 158 221
-16.3205 220.788 -94.6059 0 0 1 160 162 165
-6.68968 230.608 -94.6613 0 0 1 169 151 115
-27.2813 242.864 -94.5785 0 0 1 156 162 113
-24.5925 217.361 -94.5619 0 0 1 180 180 179
-19.486 220.469 -94.5629 0 0 1 161 163 167
-21.7604 241.212 -94.6616 0 0 1 172 176 180
-5.5759 225.145 -94.5787 0 0 1 127 121 84
-27.9845 223.076 -94.55 0 0 1 182 194 176
-18.8164 224 -94.6566 0 0 1 167 169 173
-26.7387 223.531 -94.7301 0 0 1 163 156 118
-21.6521 215.747 -94.4615 0 0 1 172 172 174
-10.6449 223.166 -94.6135 0 0 1 112 118 72
-25.6687 231.275 -94.6229 0 0 1 182 183 146
-22.5191 235.368 -94.522 0 0 1 178 187 189
-8.53165 235.3 -87.7418 0 0 1 46 55 33
-17.4098 216.329 -94.4869 0 0 1 163 166 170
-5.17634 215.706 -94.5998 0 0 1 163 158 127
-27.9982 220 -94.5636 0 0 1 209 202 184
-22.8052 227.426 -94.5452 0 0 1 190 202 209
-19.5941 238.753 -94.5618 0 0 1 169 179 180
-16.9843 222.995 -94.598 0 0 1 165 167 171
-14.0189 221.124 -94.5623 0 0 1 162 162 166
-16.3569 217.941 -94.5099 0 0 1 162 165 169
-14.2515 241.832 -94.5485 0 0 1 165 163 129
-7.83912 217.297 -94.6381 0 0 1 143 139 107
-10.1428 223.063 -94.6264 0 0 1 140 139 102
-17.8692 216.885 -94.6444 0 0 1 162 164 167
-25.0015 244.066 -94.8208 0 0 1 160 161 166
-11.018 218.097 -94.6914 0 0 1 176 176 177
-16.0117 243.77 -94.6611 0 0 1 137 134 100
-18.4272 227.937 -94.6188 0 0 1 161 162 166
-20.3822 236.087 -94.6434 0 0 1 174 184 186
-21.2292 242.942 -94.6226 0 0 1 166 167 170
-4.22165 231.623 -94.5861 0 0 1 162 143 111
-14.7192 223.38 -94.6192 0 0 1 163 166 169
-22.4661 234.138 -94.6288 0 0 1 179 188 190
-25.8968 222.134 -94.6169 0.0643554 -0.176884 0.982125 166 155 121
-20.1673 224.437 -94.4786 0 0 1 163 163 168
-17.4343 234.274 -94.5383 0 0 1 160 160 165
-20.4987 236.447 -94.5236 0 0 1 170 180 182
-12.5864 240.632 -94.5023 0 0 1 170 162 128
-5.58182 224.183 -94.5838 0 0 1 130 122 85
-19.562 234.049 -94.5299 0 0 1 171 176 181
-15.3899 220.622 -94.6348 0 0 1 163 163 169
-28.7546 240.413 -94.7612 0 0 1 196 195 165
-28.1397 229.993 -94.803 0 0 1 161 162 118
-14.4865 227.381 -94.6504 0 0 1 162 161 163
-18.7517 226.918 -94.557 0 0 1 163 164 168
-6.15757 223.509 -94.6522 0 0 1 149 141 107
-8.60263 236.314 -87.9171 0 0 1 50 65 48
-28.4116 224.487 -94.6099 0 0 1 154 161 168
-24.0327 227.833 -94.6569 0 0 1 180 180 151
-21.9891 237.825 -94.7262 0 0 1 176 184 186
-28.5531 237.068 -94.7707 0 0 1 156 165 115
-14 225.216 -94.6152 0 0 1 160 160 164
-23.538 216.706 -94.6206 0 0 1 176 174 174
-8.61166 228.473 -94.5274 0 0 1 149 135 100
-10.1607 222.231 -94.5901 0 0 1 122 125 85
-16.5933 233.215 -94.553 0 0 1 164 164 168
-22.5345 215.006 -94.4754 0 0 1 167 167 170
-21.3702 221.86 -94.6087 0 0 1 181 201 213
-26.4921 244.095 -94.7497 0 0 1 192 190 176
-7.66342 221.218 -94.6454 0 0 1 142 139 109
-18.1186 242.518 -94.504 0 0 1 161 164 167
-27.8879 237.587 -94.6499 0 0 1 159 167 120
-27.8871 223.906 -94.5134 0 0 1 144 194 244
-24.5054 217.99 -94.6457 0 0 1 173 173 174
-24.208 226.809 -94.639 0 0 1 176 176 137
-23.0896 216.935 -94.4249 0 0 1 170 171 174
-18.7608 223.284 -94.5584 0 0 1 164 166 171
-26.2046 233.297 -94.5786 0 0 1 198 198 162
-14.6793 236.878 -94.5843 0 0 1 182 179 166
-16.6775 244.22 -94.5469 0 0 1 206 202 203
-10.8553 235.232 -94.5828 0 0 1 145 139 99
-23.2391 222.76 -94.5484 0 0 1 155 142 109
-21.258 236.809 -94.7403 0 0 1 162 162 167
-15.2403 233.729 -94.5676 0 0 1 166 166 168
-23.2714 235.47 -94.799 0 0 1 164 165 167
-27.3413 230.301 -94.8071 0 0 1 191 194 154
-4.32151 237.37 -87.0129 0 0 1 42 60 40
-18.9085 234.189 -94.6301 0 0 1 172 177 183
-12.7795 242.176 -94.5733 0 0 1 126 124 85
-15.3978 238.155 -94.6721 0 0 1 166 167 167
-5.60032 226.234 -94.6128 0 0 1 138 130 95
-18.9643 216.846 -94.5776 0 0 1 160 163 167
-21.9028 243.589 -94.6119 0 0 1 166 170 173
-8.31153 225.49 -94.5446 0 0 1 166 155 120
-15.2584 219.452 -94.6366 0 0 1 163 163 167
-5.56135 232.677 -87.1101 0 0 1 112 128 76
-12.935 239.049 -94.5837 0 0 1 154 150 111
-13.1104 218.623 -94.5477 0 0 1 162 161 164
-5.80104 237.162 -86.203 0 0 1 25 38 26
-26.564 230.281 -94.6306 0 0 1 175 181 136
-5.20241 234.048 -86.2834 0 0 1 92 112 63
-4.8926 236.729 -86.0787 0 0 1 27 36 23
-26.616 234.706 -94.6622 0 0 1 189 191 152
-11.5254 241.065 -94.4568 0 0 1 148 135 116
-7.4548 217.429 -94.6488 0 0 1 154 149 123
-10.4658 215.523 -94.7358 0 0 1 174 178 177
-6.33106 225.831 -94.5931 0 0 1 168 155 121
-27.9493 235.866 -94.8246 0 0 1 172 177 134
-21.1082 242.221 -94.876 0 0 1 165 166 169
-22.1049 241.652 -94.5364 0 0 1 164 169 172
-5.35137 241.621 -94.5299 0 0 1 153 143 132
-7.38105 236.105 -86.351 0 0 1 67 88 53
-19.4084 215.716 -94.5389 0 0 1 182 183 190
-5.16967 227.28 -94.5826 0 0 1 172 163 129
-24.8776 244.326 -94.6993 0 0 1 158 164 167
-25.5691 223.85 -94.7382 0 0 1 153 153 110
-20.4952 219.724 -94.5553 0 0 1 181 184 195
-17.3006 239.838 -94.568 0 0 1 159 164 167
-10.4495 215.765 -94.6509 0 0 1 178 180 179
-28.3219 226.793 -94.6202 0 0 1 235 238 237
-15.4125 237.664 -94.6344 0 0 1 157 156 161
-28.7388 233.611 -94.1225 0 0 1 224 228 200
-21.201 220.895 -94.5084 0 0 1 214 218 224
-7.28602 241.872 -94.5869 0 0 1 67 69 68
-15.4122 236.014 -94.6271 0 0 1 166 167 168
-13.7298 234.364 -94.5971 0 0 1 144 141 104
-24.6171 226.294 -94.6031 0 0 1 178 179 136
-26.7538 236.666 -94.6948 0 0 1 163 166 123
-13.9177 230.235 -94.6177 0 0 1 156 156 158
-23.0727 241.563 -94.6194 0 0 1 174 182 184
-8.14534 235.471 -86.9738 0 0 1 47 59 32
-28.8596 235.389 -94.4803 0 0 1 142 194 175
-17.3374 214.581 -94.5201 0 0 1 170 174 180
-6.41982 233.971 -86.563 0 0 1 78 91 50
-26.494 236.453 -94.5842 0 0 1 162 165 125
-18.6269 221.529 -94.5544 0 0 1 162 163 167
-16.039 217.902 -94.5472 0 0 1 163 166 168
-9.22665 233.018 -94.6389 0 0 1 148 129 97
-19.3092 217.58 -94.4758 0 0 1 161 164 168
-17.88 240.445 -94.5173 0 0 1 156 160 163
-12.2801 238.226 -94.5176 0 0 1 187 179 141
-14.687 235.088 -94.5917 0 0 1 178 178 177
-11.4299 223.431 -94.6289 0 0 1 174 166 154
-25.862 216.777 -94.5239 0 0 1 206 202 201
-15.5977 244.248 -94.7067 0 0 1 131 138 93
-4.65495 219.333 -94.6244 0 0 1 145 148 109
-12.0785 216.06 -94.5525 0 0 1 161 161 163
-4.76883 219.81 -94.5936 0 0 1 142 139 102
-19.2499 217.257 -94.577 0 0 1 161 164 168
-17.1684 238.563 -94.6731 0 0 1 163 168 171
-24.8747 243.134 -94.7452 0 0 1 161 163 168
-28.132 242.232 -94.5685 0 0 1 182 182 145
-6.04924 235.182 -85.9009 0 0 1 89 108 70
-6.12425 234.864 -94.0273 0 0 1 154 153 106
-25.7597 217.578 -94.1859 0 0 1 232 229 236
-8.02658 225.435 -94.556 0 0 1 149 143 108
-8.68321 227.675 -94.5785 0 0 1 143 135 100
-12.6303 218.041 -94.5943 0 0 1 162 161 163
-11.521 229.287 -94.588 0 0 1 157 155 116
-11.3674 241.056 -94.3514 0 0 1 148 152 163
-20.8071 236.47 -94.5516 0 0 1 173 181 183
-13.4328 224.374 -94.6209 0 0 1 162 161 164
-24.9938 238.031 -94.7109 0 0 1 217 221 212
-27.8989 240.141 -94.6211 0 0 1 156 162 122
-9.28353 229.406 -94.5895 0 0 1 156 140 104
-4.26157 218.363 -94.6199 0 0 1 157 152 120
-23.0004 240.952 -94.7858 0 0 1 177 186 188
-9.10098 233.949 -94.18 0 0 1 106 137 145
-21.4504 235.555 -94.5899 0 0 1 176 185 187
-12.0652 242.456 -94.5095 0 0 1 123 112 86
-4.4525 218.193 -94.624 -0.0995878 0.159204 0.98221 159 152 122
-28.1149 218.479 -94.5333 0 0 1 160 160 162
-20.8282 227.399 -94.6913 0 0 1 162 165 170
-26.629 224.595 -94.7289 0 0 1 175 179 135
-4.32364 229.691 -94.6048 0 0 1 152 136 96
-27.8788 220.634 -94.6052 0 0 1 162 152 115
-8.34143 240.704 -94.5411 0 0 1 46 46 36
-23.0071 220.69 -94.5909 0 0 1 163 164 165
-19.014 228.37 -94.5691 0 0 1 165 165 170
-27.1393 228.834 -94.7703 0 0 1 197 198 158
-25.8892 240.368 -94.5973 0 0 1 183 175 154
-27.6407 221.625 -94.624 0 0 1 117 124 91
-27.3507 221.656 -94.4109 0 0 1 190 188 202
-26.0861 221.775 -94.5591 0 0 1 146 135 100
-10.5931 238.585 -94.1124 0 0 1 193 186 194
-28.7051 217.999 -94.5913 0 0 1 166 167 169
-9.41544 216.603 -94.6057 0 0 1 116 105 84
-24.5608 240.5 -94.7868 0 0 1 162 166 168
-27.8734 235.766 -94.6189 0 0 1 185 189 146
-7.97399 214.463 -94.6065 0 0 1 131 123 88
-6.60085 223.391 -94.6501 0 0 1 135 132 95
-27.0008 242.118 -94.599 0 0 1 150 153 109
-17.0837 220.464 -94.6701 0 0 1 162 163 166
-4.17299 236.537 -86.297 0 0 1 59 75 46
-20.8624 215.68 -94.6202 0 0 1 158 178 190
-16.2035 243.892 -94.6456 0 0 1 141 128 104
-16.3843 214.7 -94.5752 0 0 1 164 165 170
-5.03056 220.979 -94.6118 0 0 1 152 144 107
-24.1239 232.588 -94.6586 0 0 1 196 195 183
-4.1617 233.333 -86.447 0 0 1 105 121 75
-5.22514 238.975 -94.5597 0 0 1 108 100 70
-28.4363 243.552 -94.597 0 0 1 171 172 135
-10.4016 228.686 -94.5529 0 0 1 166 158 124
-15.9683 220.234 -94.669 0 0 1 160 161 165
-18.1398 222.768 -94.5136 0 0 1 163 164 168
-10.3158 224.858 -94.5409 0 0 1 192 183 158
-9.88527 232.49 -94.6183 0 0 1 151 140 104
-26.9885 221.325 -94.3441 0 0 1 212 224 231
-23.7825 238.923 -94.5555 0 0 1 178 187 190
-8.20308 234.3 -94.5155 0 0 1 104 106 87
-16.6828 233.629 -94.6193 0 0 1 163 164 168
-20.529 235.927 -94.6309 0 0 1 176 186 188
-16.59 236.976 -94.5866 0 0 1 159 161 165
-11.0254 237.787 -94.6242 0 0 1 140 133 97
-27.5183 238.749 -94.6583 0 0 1 158 165 118
-28.6328 225.72 -94.3236 0 0 1 76 86 133
-7.77269 239.847 -94.624 0 0 1 102 100 84
-13.2916 244.533 -94.5364 0 0 1 134 148 94
-18.723 221.74 -94.5637 0 0 1 162 163 168
-7.373 243.55 -94.5293 0 0 1 51 48 46
-9.27193 214.953 -94.6344 0 0 1 154 148 138
-28.4392 243.054 -94.702 0 0 1 163 165 129
-9.6201 222.692 -94.5473 0 0 1 168 165 133
-17.1095 240.606 -94.6034 0 0 1 155 159 161
-11.8397 216.615 -94.6351 0 0 1 162 160 163
-7.26611 217.857 -94.571 0 0 1 154 153 124
-26.7239 240.686 -94.6906 0 0 1 145 150 109
-22.3583 222.248 -94.5545 0 0 1 208 208 215
-15.6267 234.724 -94.5826 0 0 1 165 165 167
-23.3125 218.865 -94.5788 0 0 1 168 168 170
-21.9542 243.507 -94.5869 0 0 1 165 169 172
-9.54112 221.274 -94.5416 0 0 1 144 140 105
-5.78687 238.096 -94.3848 0 0 1 16 19 23
-27.5587 218.022 -94.5149 0 0 1 164 165 167
-12.6216 218.819 -94.6495 0 0 1 164 164 168
-11.1843 222.052 -94.5586 0 0 1 187 178 166
-22.0873 243.926 -94.6501 0 0 1 164 169 172
-26.7021 230.34 -94.7603 0 0 1 166 173 123
-4.63042 236.627 -86.089 0 0 1 121 150 94
-13.1252 243.905 -94.5427 0 0 1 144 155 106
-15.6514 229.62 -94.6018 0 0 1 164 165 167
-13.777 244.075 -94.5166 0 0 1 169 174 130
-20.7717 233.256 -94.6411 0 0 1 174 184 186
-25.1882 230.32 -94.7363 0 0 1 198 196 160
-23.9528 222.005 -94.564 0 0 1 170 151 124
-7.35657 232.902 -94.2481 0 0 1 140 165 168
-27.6259 217.086 -94.5361 0 0 1 170 170 173
-12.8261 234.428 -94.5098 0 0 1 188 174 144
-14.9554 236.427 -94.6524 0 0 1 180 182 181
-19.3655 242.951 -94.7382 0 0 1 161 164 166
-23.6693 238.269 -94.5931 0 0 1 180 188 190
-14.9891 241.248 -94.5379 0 0 1 129 125 89
-26.1184 225.878 -94.7034 0 0 1 171 177 133
-11.7196 238.502 -94.619 0 0 1 156 152 113
-26.9544 241.797 -94.646 0 0 1 143 149 105
-22.8577 239.137 -94.5772 0 0 1 178 188 189
-8.6517 235.061 -87.8094 0 0 1 39 52 33
-12.3967 220.013 -94.6949 0 0 1 167 166 169
-6.85334 242.143 -94.535 0 0 1 72 72 72
-23.0212 237.929 -94.5839 0 0 1 177 186 187
-21.5153 226.405 -94.6318 0 0 1 165 166 171
-12.9801 237.922 -94.5102 0 0 1 162 156 120
-13.9055 221.096 -94.6146 0 0 1 162 162 166
-21.7586 229.495 -94.5846 0 0 1 166 166 170
-14.5818 218.224 -94.5904 0 0 1 163 163 167
-21.522 240.931 -94.6118 0 0 1 172 180 182
-22.597 241.546 -94.5404 0 0 1 173 182 184
-12.6602 240.944 -94.511 0 0 1 152 149 111
-26.9794 226.904 -94.6799 0 0 1 183 189 146
-12.3306 221.268 -94.557 0 0 1 164 163 167
-5.9351 226.562 -94.6395 0 0 1 135 123 87
-5.3575 240.605 -94.5319 0 0 1 157 152 131
-22.4757 225.424 -94.5601 0 0 1 155 170 188
-11.5562 234.342 -94.5389 0 0 1 145 134 101
-27.6323 231.754 -94.668 0 0 1 176 175 133
-6.14999 234.192 -86.443 0 0 1 79 95 53
-28.8447 243.189 -94.6509 0 0 1 153 160 115
-14.1667 222.343 -94.638 0 0 1 161 162 166
-25.7467 230.159 -94.5499 0 0 1 196 196 164
-18.2026 225.475 -94.5086 0 0 1 162 164 169
-6.51858 244.258 -94.5508 0 0 1 46 45 39
-28.4557 227.722 -94.6196 0 0 1 153 174 206
-23.831 242.254 -94.7938 0 0 1 166 169 172
-17.7067 243.906 -94.693 0 0 1 160 163 164
-7.10612 239.133 -94.5454 0 0 1 32 33 28
-28.8595 243.287 -94.7262 0 0 1 153 160 115
-6.53985 234.115 -94.4299 -0.00120848 -0.0819671 0.996634 112 108 87
-20.0244 223.928 -94.567 0 0 1 163 163 167
-18.8841 238.161 -94.9357 0 0 1 160 163 167
-22.8719 237.658 -94.5627 0 0 1 177 186 188
-4.85408 226.49 -94.6339 0 0 1 162 156 123
-20.1358 240.17 -94.7376 0 0 1 154 154 158
-15.8493 231.601 -94.5466 0 0 1 165 165 167
-7.93271 240.128 -94.5378 0 0 1 110 107 92
-8.7846 235.28 -87.5892 0 0 1 72 83 50
-13.9662 219.041 -94.6453 0 0 1 162 162 165
-25.7426 235.345 -94.7265 0 0 1 156 166 120
-22.6428 238.444 -94.6282 0 0 1 177 187 189
-19.1842 222.851 -94.4905 0 0 1 161 163 167
-28.0861 215.154 -94.4619 0 0 1 175 181 180
-11.8988 229.003 -94.5786 0 0 1 115 119 76
-28.2535 239.77 -94.6127 0 0 1 168 176 132
-20.7554 238.005 -94.7007 0 0 1 172 179 182
-29.1167 232.99 -94.1089 0 0 1 199 236 226
-13.8516 240.478 -94.522 0 0 1 168 163 130
-27.2823 237.605 -94.7285 0 0 1 158 163 118
-21.2042 226.555 -94.5629 0 0 1 166 167 171
-23.349 238.409 -94.5746 0 0 1 178 187 189
-20.8367 241.821 -94.6467 0 0 1 163 165 169
-23.0904 232.821 -94.5199 0 0 1 179 186 189
-12.3196 226.81 -94.5332 0 0 1 198 194 190
-28.3835 226.58 -94.5965 0 0 1 219 232 234
-17.8732 232.382 -94.5832 0 0 1 159 160 164
-11.2291 215.308 -94.605 0 0 1 164 164 165
-9.76084 221.352 -94.6056 0 0 1 126 126 94
-26.08 229.145 -94.6073 0 0 1 189 192 152
-13.4029 216.983 -94.7305 0 0 1 162 163 167
-20.1357 226.56 -94.5747 0 0 1 165 167 171
-13.3442 215.633 -94.6652 0 0 1 162 163 166
-18.4047 218.612 -94.6511 0 0 1 159 162 166
-10.4236 216.899 -94.6332 0 0 1 186 186 186
-5.89611 235.982 -85.5014 0 0 1 97 112 61
-14.8007 233.907 -94.6466 0 0 1 170 169 169
-17.3113 228.82 -94.7196 0 0 1 160 160 164
-12.4872 235.831 -94.5091 0 0 1 154 151 115
-4.94175 231.443 -94.5953 0 0 1 160 148 115
-18.9146 221.175 -94.5781 0 0 1 162 164 167
-8.00246 219.393 -94.6129 0 0 1 150 149 122
-21.4807 240.541 -94.5938 0 0 1 171 179 181
-17.123 244.066 -94.7256 0 0 1 160 160 164
-7.74893 223.737 -94.5641 0 0 1 155 152 116
-12.9119 223.955 -94.6593 0 0 1 164 163 166
-10.1782 215.413 -94.6634 0 0 1 178 180 178
-11.5319 214.746 -94.6006 0 0 1 164 163 166
-6.56751 222.764 -94.5945 0 0 1 140 133 96
-19.9362 223.833 -94.5326 0 0 1 163 162 167
-17.9076 216.235 -94.5012 0 0 1 162 165 168
-5.30392 223.4 -94.6076 0 0 1 127 118 83
-4.54493 227.058 -94.618 0 0 1 135 126 89
-19.5717 242.545 -94.5493 0 0 1 163 166 169
-12.2011 215.227 -94.6411 0 0 1 160 160 163
-20.9476 229.492 -94.6125 0 0 1 164 165 168
-12.6563 225.634 -94.6106 0 0 1 166 164 165
-19.1975 225.95 -94.5698 0 0 1 163 165 169
-21.0527 228.821 -94.5467 0 0 1 165 167 171
-25.0815 239.929 -94.6517 0 0 1 179 182 179
-27.5864 219.275 -94.5968 0 0 1 169 165 160
-25.2977 220.822 -94.595 0 0 1 159 159 156
-16.9932 223.344 -94.5578 0 0 1 164 167 170
-8.17922 217.16 -94.5725 0 0 1 147 148 116
-21.8833 220.281 -94.544 0 0 1 198 197 209
-6.02014 238.582 -94.5554 0 0 1 21 25 19
-11.3717 224.868 -94.568 0 0 1 124 124 91
-14.5511 223.654 -94.556 0 0 1 163 164 168
-8.20093 233.75 -87.0681 0 0 1 127 133 86
-10.5181 226.207 -94.5089 0 0 1 170 161 131
-10.9623 223.426 -94.6774 0 0 1 113 116 76
-11.2495 221.175 -94.6519 0 0 1 181 180 178
-6.02105 232.936 -94.4049 0 0 1 156 182 190
-16.2619 240.505 -94.6169 0 0 1 158 159 161
-22.8124 240.398 -94.7285 0 0 1 177 185 188
-17.6366 227.357 -94.536 0 0 1 163 164 168
-7.3452 230.802 -94.6236 0 0 1 164 149 116
-25.503 223.062 -94.5791 0 0 1 166 157 119
-23.1966 232.596 -94.7835 0 0 1 209 209 217
-11.3701 218.964 -94.7512 0 0 1 179 179 182
-23.3908 215.797 -94.4938 0 0 1 174 175 172
-26.8827 234.851 -94.6095 0 0 1 172 174 137
-22.9322 239.866 -94.7695 0 0 1 176 186 187
-24.4675 236.766 -94.54 0 0 1 186 183 187
-22.0944 239.284 -94.6274 0 0 1 176 185 186
-20.6045 240.519 -94.5789 0 0 1 161 165 168
-27.3546 226.952 -94.7277 0 0 1 187 192 149
-13.7099 219.603 -94.5553 0 0 1 164 165 170
-17.6999 239.094 -94.6391 0 0 1 162 165 169
-10.5652 236.881 -94.4559 0 0 1 137 126 99
-13.0927 221.216 -94.7036 0 0 1 160 160 164
-18.7145 243.216 -94.7856 0 0 1 160 165 166
-21.1143 229.589 -94.5993 0 0 1 165 165 169
-5.70982 214.536 -94.6224 0 0 1 152 152 117
-24.2429 238.544 -94.5731 0 0 1 176 184 186
-28.2606 240.542 -94.6144 0 0 1 152 161 118
-13.3685 235.101 -94.6073 0 0 1 163 159 126
-17.8691 222.392 -94.5624 0 0 1 165 164 169
-5.71751 230.265 -94.6036 0 0 1 155 142 105
-17.2813 223.265 -94.6042 0 0 1 164 167 172
-20.6726 227.899 -94.5401 0 0 1 165 166 171
-4.13574 230.89 -94.5583 0 0 1 155 140 103
-16.4333 236.627 -94.6389 0 0 1 157 160 163
-10.6566 232.378 -94.539 0 0 1 142 135 98
-5.88835 223.599 -94.5907 0 0 1 143 133 100
-16.0076 241.285 -94.5671 0 0 1 185 190 193
-18.4174 219.597 -94.5424 0 0 1 163 165 168
-17.0535 225.991 -94.5587 0 0 1 163 165 170
-23.8724 236.903 -94.7436 0 0 1 175 185 186
-18.2552 243.738 -94.5667 0 0 1 163 166 168
-17.6782 217.148 -94.4964 0 0 1 163 164 168
-29.0096 225.931 -94.724 0 0 1 158 167 110
-7.52637 217.847 -94.5927 0 0 1 142 139 111
-5.24426 227.286 -94.6153 0 0 1 161 148 116
-15.1601 224.079 -94.6843 0 0 1 163 163 168
-14.9907 220.263 -94.5725 0 0 1 163 163 165
-11.5698 215.299 -94.6402 0 0 1 163 162 165
-15.2019 232.585 -94.5919 0 0 1 162 163 166
-18.7996 242.329 -94.5687 0 0 1 162 166 168
-16.2129 234.428 -94.5436 0 0 1 163 164 167
-14.841 235.605 -94.5753 0 0 1 175 175 174
-11.4691 228.587 -94.5167 0 0 1 159 155 118
-22.6846 215.477 -94.4874 0 0 1 165 167 167
-16.7582 222.756 -94.5693 0 0 1 165 166 170
-24.77 219.448 -94.5795 0 0 1 161 161 163
-16.7117 242.154 -94.6445 0 0 1 162 164 166
-8.37285 232.503 -94.5513 0 0 1 148 139 109
-9.25965 235.664 -94.4956 0 0 1 119 136 136
-20.6232 241.51 -94.6894 0 0 1 160 164 167
-13.3278 229.699 -94.6273 0 0 1 170 169 170
-9.97284 221.864 -94.5621 0 0 1 129 126 93
-27.1877 238.597 -94.6735 0 0 1 169 174 130
-26.1689 224.771 -94.6487 0 0 1 170 174 128
-25.8997 232.541 -94.7064 0 0 1 179 180 140
-15.6445 219.547 -94.5726 0 0 1 160 164 167
-10.3665 223.929 -94.5999 0 0 1 148 141 106
-28.0486 217.995 -94.5705 0 0 1 166 165 167
-12.3224 221.05 -94.5993 0 0 1 164 164 168
-10.6532 237.657 -94.499 0 0 1 142 132 107
-26.864 216.051 -94.5722 0 0 1 178 177 181
-25.3653 241.771 -94.6293 0 0 1 171 178 179
-13.8137 226.35 -94.5655 0 0 1 159 159 161
-27.2826 232.272 -94.6468 0 0 1 172 172 128
-14.7569 217.562 -94.6457 0 0 1 162 163 167
-26.9517 229.965 -94.6469 0 0 1 171 174 125
-8.44738 236.013 -88.4565 0 0 1 41 58 35
-10.7761 242.154 -93.8609 0 0 1 95 149 159
-24.5589 232.228 -94.5325 0 0 1 159 164 127
-28.9901 229.139 -94.3891 0 0 1 122 163 224
-13.4664 237.225 -94.512 0 0 1 187 181 150
-27.525 229.183 -94.647 0 0 1 189 191 155
-24.883 232.04 -94.6672 0 0 1 154 162 114
-16.39 215.118 -94.5325 0 0 1 162 166 170
-8.6314 235.774 -94.4839 0 0 1 130 129 86
-22.286 223.701 -94.6206 0 0 1 100 147 179
-13.1478 232.292 -94.6169 0 0 1 127 130 90
-7.50432 214.978 -94.568 0 0 1 160 152 119
-27.3039 218.328 -94.6173 0 0 1 167 164 166
-10.0167 238.321 -94.0452 0 0 1 170 173 182
-14.4362 228.639 -94.6071 0 0 1 159 158 161
-17.4503 216.282 -94.6055 0 0 1 163 166 170
-16.2907 218.559 -94.547 0 0 1 164 164 168
-27.7368 221.37 -94.6458 0 0 1 113 124 74
-23.852 222.694 -94.5096 0 0 1 159 142 109
-18.3376 242.09 -94.5627 0 0 1 162 164 167
-9.36195 224.777 -94.5756 0 0 1 160 150 118
-15.7873 235.877 -94.6739 0 0 1 164 164 168
-22.5287 233.733 -94.7344 0 0 1 179 188 190
-5.84557 235.616 -85.9064 0 0 1 79 98 54
-14.7088 219.066 -94.6843 0 0 1 161 163 168
-15.9055 223.07 -94.7158 0 0 1 165 166 171
-11.0396 214.845 -94.6681 0 0 1 165 165 166
-9.70184 228.105 -94.5313 0 0 1 168 163 130
-11.9303 222.493 -94.5695 0 0 1 176 176 173
-15.4804 218.925 -94.6602 0 0 1 162 162 166
-27.2647 226.934 -94.6869 0 0 1 181 187 143
-5.8301 234.499 -94.1969 0 0 1 167 162 121
-17.647 244.23 -94.5947 0 0 1 162 166 166
-16.9777 225.568 -94.5421 0 0 1 163 166 171
-21.5938 217.501 -94.5351 0 0 1 174 176 180
-24.1191 243.28 -94.6973 0 0 1 166 169 173
-26.5513 238.878 -94.5653 0 0 1 164 164 120
-22.2831 215.087 -94.5939 0 0 1 166 166 168
-24.2457 223.615 -94.5787 0 0 1 160 151 112
-27.5234 237.671 -94.7207 0 0 1 155 164 119
-6.68384 216.57 -94.6141 0 0 1 171 167 137
-15.4773 215.213 -94.7205 0 0 1 166 167 173
-16.6856 238.844 -94.576 0 0 1 162 166 169
-17.3208 221.957 -94.6432 0 0 1 162 163 166
-22.3003 232.246 -94.6361 0 0 1 180 189 190
-15.4087 230.427 -94.5706 0 0 1 166 166 170
-18.8339 217.508 -94.5489 0 0 1 160 163 166
-23.8536 224.023 -94.6705 0 0 1 172 164 128
-27.2163 242.819 -94.7006 0 0 1 156 162 113
-28.4538 236.17 -94.6988 0 0 1 153 160 113
-4.23817 215.336 -94.6464 -0.115423 -0.190685 0.974842 176 170 140
-22.7344 241.612 -94.5949 0 0 1 173 182 184
-15.9821 217.855 -94.543 0 0 1 164 166 168
-24.524 244.193 -94.6824 0 0 1 160 164 166
-11.3353 239.945 -94.3934 0 0 1 143 133 106
-9.83774 240.09 -93.7539 0 0 1 143 194 181
-25.8135 235.07 -94.5546 0 0 1 160 168 123
-26.1715 238.617 -94.7205 0 0 1 163 162 118
-22.2296 218.869 -94.5531 0 0 1 169 171 173
-8.8034 215.168 -94.7114 0 0 1 118 109 82
-12.1104 228.433 -94.6582 0 0 1 128 128 93
-21.613 236.686 -94.7871 0 0 1 175 184 186
-13.8293 243.841 -94.5144 0 0 1 154 157 119
-20.5703 225.17 -94.5425 0 0 1 165 168 173
-4.87741 235.897 -94.2869 0 0 1 70 74 71
-28.9481 217.206 -94.6672 0 0 1 168 168 171
-23.9621 234.727 -94.6298 0 0 1 201 201 200
-14.0562 222.392 -94.6227 0 0 1 161 162 166
-17.1502 242.688 -94.6128 0 0 1 157 158 160
-10.9967 216.073 -94.7448 0 0 1 171 170 171
-16.9884 237.01 -94.5299 0 0 1 166 172 176
-27.6049 243.866 -94.6075 0 0 1 147 159 101
-24.6625 238.574 -94.6593 0 0 1 175 181 181
-19.7382 219.036 -94.5866 0 0 1 163 166 169
-15.3326 240.987 -94.5147 0 0 1 136 126 98
-24.5874 219.194 -94.5622 0 0 1 164 161 162
-9.55894 219.081 -94.6378 0 0 1 124 118 92
-22.2725 237.646 -94.7232 0 0 1 177 186 190
-26.9802 232.464 -94.6532 0 0 1 162 166 116
-27.782 225.864 -94.701 0 0 1 174 186 197
-18.9124 228.605 -94.682 0 0 1 162 163 168
-25.859 241.623 -94.6878 0 0 1 215 216 213
-26.3398 227.883 -94.7465 0 0 1 178 182 133
-20.3999 243.47 -94.6786 0 0 1 164 167 170
-9.86631 222.065 -94.5414 0 0 1 143 140 106
-19.1625 238.945 -94.5893 0 0 1 171 181 182
-28.3047 219.864 -94.6555 0 0 1 203 198 185
-14.0716 214.511 -94.5646 0 0 1 164 167 171
-11.4449 225.837 -94.5728 0 0 1 124 125 85
-10.6072 239.697 -93.9355 0 0 1 176 171 180
-24.3074 242.718 -94.7872 0 0 1 169 173 176
-21.1903 218.734 -94.6204 0 0 1 212 217 226
-7.44524 219.19 -94.6049 0 0 1 150 154 121
-25.995 243.489 -94.6152 0 0 1 167 173 173
-17.1336 235.763 -94.5523 0 0 1 159 159 163
-8.06149 236.478 -87.13 0 0 1 35 43 25
-11.4228 229.435 -94.5711 0 0 1 157 153 116
-15.0149 235.467 -94.6016 0 0 1 173 173 172
-8.44277 225.572 -94.5262 0 0 1 166 153 120
-4.221 237.99 -94.2951 0 0 1 17 21 17
-17.3605 215.644 -94.5417 0 0 1 163 166 171
-4.22874 216.554 -94.5905 0 0 1 164 159 127
-12.1858 215.004 -94.5092 0 0 1 161 161 164
-11.6725 215.747 -94.6664 0 0 1 163 162 164
-24.9785 229.637 -94.6468 0 0 1 188 184 151
-26.8759 222.493 -94.6462 0 0 1 145 136 106
-25.4437 233.616 -94.6635 0 0 1 164 170 125
-10.7977 230.914 -94.5502 0 0 1 144 134 100
-27.8545 233.601 -94.6695 0 0 1 163 175 123
-17.9175 227.98 -94.583 0 0 1 163 163 166
-11.3671 231.345 -94.5671 0 0 1 168 159 122
-17.3698 240.971 -94.7097 0 0 1 157 159 161
-27.6711 220.711 -94.5834 0 0 1 161 156 125
-11.5927 217.536 -94.6254 0 0 1 164 164 166
-19.1999 217.165 -94.5981 0 0 1 161 164 168
-6.06688 242.206 -94.5873 0 0 1 75 77 79
-11.0501 218.274 -94.6357 0 0 1 178 178 178
-27.0138 228.665 -94.6964 0 0 1 196 199 162
-15.1467 232.272 -94.5908 0 0 1 163 164 166
-16.7539 228.115 -94.6351 0 0 1 164 164 168
-20.6088 243.586 -94.574 0 0 1 165 169 172
-25.6441 234.544 -94.5438 0 0 1 157 164 120
-10.9744 231.535 -94.5476 0 0 1 171 158 123
-12.6631 244.247 -94.5596 0 0 1 129 142 94
-28.9701 227.112 -94.7158 0 0 1 132 147 103
-19.3738 231.176 -94.5313 0 0 1 162 162 165
-16.3825 241.42 -94.5486 0 0 1 155 156 156
-15.9674 223.377 -94.5503 0 0 1 164 166 171
-18.8224 217.128 -94.537 0 0 1 161 162 166
-5.71736 216.02 -94.6032 0 0 1 175 174 145
-29.0319 239.576 -94.7491 0 0 1 164 173 125
-15.0503 228.833 -94.6298 0 0 1 163 162 165
-22.9745 237.345 -94.6481 0 0 1 178 188 189
-4.20386 214.774 -94.6513 0 0 1 161 154 120
-8.21094 229.294 -94.5887 0 0 1 157 145 111
-25.8554 218.647 -94.2425 0 0 1 132 162 213
-13.0236 224.645 -94.6915 0 0 1 161 160 162
-22.3433 234.923 -94.6873 0 0 1 179 189 190
-13.1602 223.911 -94.6809 0 0 1 163 162 167
-12.7408 228.317 -94.6092 0 0 1 198 197 196
-20.9418 218.633 -94.5961 0 0 1 199 200 211
-17.4455 237.374 -94.6196 0 0 1 167 177 178
-8.34455 228.521 -94.6031 0 0 1 158 146 111
-22.7635 237.906 -94.5828 0 0 1 176 186 188
-28.0345 241.206 -94.5728 0 0 1 191 189 159
-23.7902 233.021 -94.6663 0 0 1 228 228 230
-21.975 240.694 -94.6029 0 0 1 173 182 185
-24.4746 224.788 -94.6805 0 0 1 181 175 137
-10.6787 218.203 -94.6721 0 0 1 176 175 175
-26.675 229.287 -94.7064 0 0 1 178 183 135
-11.809 243.936 -94.028 0 0 1 36 58 86
-23.9611 234.434 -94.5957 0 0 1 210 206 205
-24.2624 235.072 -94.5809 0 0 1 222 216 215
-15.1277 238.63 -94.5934 0 0 1 178 171 156
-11.0355 216.982 -94.6229 0 0 1 170 169 169
-23.4006 243.207 -94.634 0 0 1 165 169 172
-11.1809 231.795 -94.5501 0 0 1 173 165 136
-26.6662 226.376 -94.7078 0 0 1 195 199 158
-20.2011 221.762 -94.5127 0 0 1 162 163 167
-5.82165 237.81 -87.6727 0 0 1 16 22 16
-4.50684 237.182 -93.7911 0 0 1 94 114 128
-22.0187 242.19 -94.5897 0 0 1 161 165 168
-17.7687 235.856 -94.6857 0 0 1 169 173 178
-7.05118 225.356 -94.6057 0 0 1 172 164 134
-12.1934 218.558 -94.5728 0 0 1 163 164 168
-25.5928 231.885 -94.5275 0 0 1 174 175 133
-28.4133 233.12 -94.0716 0 0 1 197 202 170
-28.354 238.121 -94.67 0 0 1 187 189 153
-20.0399 221.9 -94.5564 0 0 1 163 163 167
-12.7196 239.177 -94.5297 0 0 1 156 152 113
-5.0378 239.449 -94.6081 0 0 1 114 107 77
-18.1342 229.583 -94.6045 0 0 1 162 162 166
-13.0591 239.634 -94.5789 0 0 1 154 147 108
-17.6645 226.846 -94.6035 0 0 1 162 165 169
-19.8458 242.148 -94.6669 0 0 1 162 166 169
-22.1571 242.003 -94.7858 0 0 1 173 176 180
-6.24958 220.079 -94.5998 0 0 1 160 152 118
-10.6345 220.529 -94.6884 0 0 1 174 161 148
-24.445 215.272 -94.5701 0 0 1 212 206 198
-25.2875 224.449 -94.6425 0 0 1 178 170 137
-23.1537 239.754 -94.5566 0 0 1 177 187 188
-14.7229 234.142 -94.5236 0 0 1 172 171 170
-23.8677 222.204 -94.4972 0 0 1 166 148 117
-5.90026 230.886 -94.6139 0 0 1 148 133 102
-28.7714 227.867 -94.3796 0 0 1 159 186 222
-14.9122 233.806 -94.5573 0 0 1 166 166 167
-24.5349 233.459 -94.5251 0 0 1 182 181 156
-19.1866 235.044 -94.5349 0 0 1 174 184 185
-23.33 214.316 -94.5684 0 0 1 208 205 195
-24.3708 222.171 -94.5253 0 0 1 157 143 110
-4.73971 223.511 -94.6822 0 0 1 125 120 82
-6.36587 230.823 -94.5625 0 0 1 170 156 122
-25.8159 236.976 -94.7227 0 0 1 153 152 112
-16.5219 230.787 -94.6703 0 0 1 165 165 169
-24.8965 238.772 -94.5618 0 0 1 179 181 181
-16.0009 244.396 -94.6875 0 0 1 138 134 97
-28.2906 229.685 -94.7751 0 0 1 155 167 123
-4.26853 223.524 -94.5826 0 0 1 155 148 113
-27.8503 226.499 -94.6729 0 0 1 178 183 145
-5.92376 220.069 -94.5957 0 0 1 144 141 105
-12.8714 233.324 -94.561 0 0 1 149 146 108
-21.7616 232.066 -94.5438 0 0 1 176 186 188
-11.7822 228.133 -94.6151 0 0 1 115 120 76
-27.4281 239.373 -94.6659 0 0 1 178 180 142
-25.7623 234.078 -94.6849 0 0 1 166 174 130
-20.7506 229.032 -94.5313 0 0 1 165 166 171
-19.275 233.568 -94.6733 0 0 1 171 175 179
-8.08641 238.555 -93.7391 0 0 1 114 158 144
-24.1433 224.886 -94.5768 0 0 1 180 170 131
-22.7266 232.294 -94.5488 0 0 1 179 187 189
-5.95539 226.187 -94.566 0 0 1 128 115 80
-9.686 231.712 -94.6384 0 0 1 143 133 98
-10.9577 228.798 -94.6201 0 0 1 143 141 104
-10.8899 225.656 -94.5248 0 0 1 129 128 89
-20.2397 240.335 -94.5433 0 0 1 158 163 166
-4.17061 223.675 -94.6047 0 0 1 161 158 123
-27.5073 227.508 -94.6887 0 0 1 182 187 141
-21.8944 242.426 -94.6471 0 0 1 162 165 168
-4.22795 234.312 -85.9074 0 0 1 110 132 76
-18.4791 218.539 -94.5798 0 0 1 160 162 166
-20.1796 239.302 -94.6778 0 0 1 171 180 181
-8.41069 234.236 -87.5167 0 0 1 73 90 53
-5.55388 216.136 -94.6492 0 0 1 153 151 119
-16.1841 229.178 -94.604 0 0 1 163 163 167
-7.05424 243.897 -94.529 0 0 1 51 50 47
-6.5213 240.749 -94.5696 0 0 1 119 112 97
-12.0923 228.856 -94.6837 0 0 1 121 121 83
-25.4495 240.34 -94.7831 0 0 1 208 205 204
-15.6125 223.684 -94.5694 0 0 1 164 165 169
-7.84518 234.196 -87.1206 0 0 1 78 94 58
-19.4817 243.646 -94.5829 0 0 1 164 166 169
-25.2278 223.887 -94.6348 0.146346 -0.0755675 0.986343 178 172 136
-9.66416 220.291 -94.6123 0 0 1 126 128 94
-29.0865 219.288 -94.5356 0 0 1 184 179 171
-22.8727 217.711 -94.5268 0 0 1 167 169 172
-11.8404 242.025 -94.5214 0 0 1 147 131 104
-18.1815 219.179 -94.5696 0 0 1 164 166 169
-4.06521 215.825 -94.5791 0 0 1 184 176 149
-5.05882 226.484 -94.5733 0 0 1 148 142 108
-11.2803 219.479 -94.699 0 0 1 175 175 174
-25.0097 241.541 -94.6047 0 0 1 173 180 182
-26.7943 240.445 -94.6742 0 0 1 153 154 112
-28.4257 242.199 -94.6072 0 0 1 168 174 132
-8.56166 228.892 -94.6272 0 0 1 174 159 124
-9.25109 243.964 -94.5621 0 0 1 37 40 30
-28.3994 220.221 -94.6263 0 0 1 172 167 138
-23.3506 222.919 -94.5576 0 0 1 162 148 113
-4.44639 238.68 -87.8804 0 0 1 31 41 32
-13.9225 232.883 -94.6338 0 0 1 193 194 192
-7.96777 238.495 -93.7915 0 0 1 77 138 175
-16.7708 216.98 -94.55 0 0 1 163 166 170
-25.7203 222.317 -94.6267 0 0 1 165 158 121
-28.5861 220.893 -94.5507 0 0 1 145 148 104
-21.8414 233.798 -94.5559 0 0 1 179 188 190
-14.4002 234.075 -94.6294 0 0 1 186 185 182
-5.06646 233.518 -94.2428 0 0 1 72 86 44
-15.8988 217.692 -94.5855 0 0 1 164 166 169
-13.828 225.795 -94.7024 0 0 1 161 160 164
-15.652 238.654 -94.6562 0 0 1 165 167 167
-21.0419 237.056 -94.7095 0 0 1 175 183 186
-7.78278 240.075 -94.5784 0 0 1 97 85 74
-18.3213 243.657 -94.6159 -0.103616 0.173162 0.979428 163 166 168
-16.2597 233.852 -94.5099 0 0 1 162 162 165
-17.7853 237.053 -94.5587 0 0 1 166 176 177
-23.8555 230.7 -94.628 0 0 1 208 208 198
-20.4405 238.502 -94.7134 0 0 1 171 179 181
-9.25821 239.644 -94.4956 0 0 1 99 111 78
-24.0907 238.008 -94.5706 0 0 1 174 184 184
-10.2905 225.014 -94.5455 0 0 1 189 178 150
-19.0195 242.899 -94.6826 0 0 1 160 164 166
-19.8828 236.991 -94.7711 0 0 1 171 180 183
-19.2926 217.777 -94.5248 0 0 1 161 164 167
-28.1363 220.827 -94.5509 0 0 1 142 150 99
-23.064 215.637 -94.5225 0 0 1 164 166 167
-20.7038 215.068 -94.5364 0 0 1 195 200 206
-27.0617 225.248 -94.6406 0 0 1 177 181 135
-8.70949 216.072 -94.5808 0 0 1 135 128 104
-11.7103 233.734 -94.574 0 0 1 163 157 121
-13.8188 237.586 -94.5847 0 0 1 157 154 120
-26.0818 242.432 -94.6326 0 0 1 204 202 199
-20.7408 219.866 -94.4997 0 0 1 208 212 218
-10.353 224.417 -94.5537 0 0 1 179 171 136
-7.11279 235.446 -94.3246 0 0 1 99 113 67
-19.7033 231.773 -94.5842 0 0 1 163 164 168
-25.9763 222.12 -94.5937 0 0 1 156 148 110
-5.24849 228.369 -94.6241 0 0 1 165 146 109
-7.83438 240.309 -94.5781 0 0 1 74 66 60
-26.3561 219.654 -94.4904 0 0 1 196 196 204
-14.0003 219.296 -94.7131 0 0 1 163 163 165
-20.9614 230.104 -94.5271 0 0 1 162 166 169
-14.2044 224.515 -94.5953 0 0 1 161 160 164
-5.83065 222.349 -94.6269 0 0 1 140 131 96
-23.5819 242.737 -94.5897 0 0 1 166 170 173
-7.60287 233.918 -94.1576 0 0 1 78 74 50
-6.11191 244.336 -94.525 0 0 1 53 50 47
-27.4521 233.12 -94.6423 0 0 1 183 183 143
-8.93726 235.958 -88.12 0 0 1 68 69 51
-7.92847 226.072 -94.5471 0 0 1 175 164 132
-24.3115 217.984 -94.4585 0 0 1 172 172 175
-4.70554 240.2 -94.57 0 0 1 159 147 123
-4.33553 237.427 -86.8621 0 0 1 56 68 45
-8.16483 236.034 -94.4496 0 0 1 92 97 64
-23.7314 220.626 -94.6126 0 0 1 158 156 157
-26.2719 237.865 -94.7001 0 0 1 155 158 112
-26.4083 244.156 -94.6271 0 0 1 192 190 187
-9.32242 216.657 -94.6544 0 0 1 103 100 72
-18.1645 217.064 -94.4797 0 0 1 161 163 166
-19.5759 215.256 -94.4923 0 0 1 215 216 221
-24.5653 220.532 -94.5432 0 0 1 151 151 151
-15.7784 229.046 -94.6465 0 0 1 164 164 167
-26.5495 232.602 -94.5827 0 0 1 174 181 139
-6.4552 236.604 -86.2534 0 0 1 44 54 31
-25.416 224.157 -94.6725 0 0 1 162 160 122
-7.1364 232.308 -94.6486 0 0 1 151 137 103
-26.0697 241.705 -94.6894 0 0 1 202 199 193
-27.3249 236.511 -94.6363 0 0 1 150 159 109
-8.24856 232.059 -94.6147 0 0 1 144 130 98
-6.38318 230.421 -94.6265 0 0 1 166 149 115
-27.4124 242.796 -94.6546 0 0 1 155 161 110
-10.6121 238.727 -94.0982 0 0 1 196 188 194
-19.5647 218.637 -94.6093 0 0 1 162 164 168
-19.6692 224.374 -94.5111 0 0 1 164 167 172
-24.4719 242.566 -94.679 0 0 1 174 182 185
-24.7384 231.555 -94.6422 0 0 1 155 162 115
-11.105 232.708 -94.59 0 0 1 154 145 109
-25.0818 228.925 -94.6247 0 0 1 191 189 149
-26.2797 241.121 -94.579 0 0 1 155 154 117
-13.2607 243.038 -94.4801 0 0 1 156 162 117
-16.5676 217.074 -94.6186 0 0 1 164 166 170
-17.5485 228.186 -94.5098 0 0 1 165 165 170
-6.17271 241.338 -94.5242 0 0 1 75 72 69
-15.9191 218.613 -94.6127 0 0 1 163 165 169
-7.31678 238.58 -94.1135 0 0 1 21 31 47
-12.2446 216.927 -94.6141 0 0 1 159 159 161
-21.0017 241.559 -94.5779 0 0 1 164 167 170
-15.5518 216.209 -94.6161 0 0 1 162 165 169
-18.0122 220.93 -94.6606 0 0 1 162 162 166
-21.1069 227.91 -94.5363 0 0 1 166 167 172
-7.3548 221.681 -94.5818 0 0 1 157 151 121
-18.813 234.259 -94.6197 0 0 1 173 178 183
-25.5305 238.878 -94.5913 0 0 1 184 182 166
-8.80282 229.372 -94.6044 0 0 1 172 157 124
-24.6233 220.064 -94.5956 0 0 1 158 157 158
-16.0034 228.428 -94.6937 0 0 1 163 164 166
-13.8384 215.146 -94.6252 0 0 1 164 165 169
-18.042 218.561 -94.5088 0 0 1 162 165 168
-28.9152 231.82 -94.6778 0 0 1 182 188 159
-18.5171 237.716 -94.6519 0 0 1 169 178 179
-25.2395 223.961 -94.6274 0.146346 -0.0755675 0.986343 178 172 136
-25.9384 230.108 -94.6293 0 0 1 190 192 153
-8.59296 235.895 -87.8891 0 0 1 51 60 40
-27.0699 225.663 -94.7743 0 0 1 183 189 145
-23.6823 235.463 -94.5747 0 0 1 181 189 190
-16.3155 237.229 -94.5426 0 0 1 158 161 165
-22.5917 222.039 -94.5129 0 0 1 155 154 159
-18.5528 244.37 -94.6089 0 0 1 160 164 166
-24.0816 221.916 -94.5604 0 0 1 170 161 138
-11.0012 216.711 -94.7173 0 0 1 172 171 170
-25.0121 240.32 -94.7767 0 0 1 176 183 181
-19.9069 218.061 -94.5809 0 0 1 171 171 176
-18.1735 239.52 -94.6866 0 0 1 164 168 170
