ply
format ascii 1.0
comment Created by Open3D
element vertex 921
property double x
property double y
property double z
property double nx
property double ny
property double nz
property uchar red
property uchar green
property uchar blue
end_header
-21.8387 232.81 -94.6023 0 0 1 180 188 190
-16.5527 218.02 -94.5075 0 0 1 161 165 168
-17.9128 244.586 -94.6285 0 0 1 164 167 166
-4.96915 236.092 -94.1719 0 0 1 74 84 78
-20.552 216.658 -94.5582 0 0 1 231 237 243
-22.1455 242.748 -94.5963 -0.188056 0.968001 0.16616 165 169 172
-20.7366 216.256 -94.6447 0 0 1 145 178 204
-15.4903 222.916 -94.7149 0 0 1 159 159 165
-14.9921 244.324 -94.6207 0.508679 0.821432 -0.257864 183 179 150
-17.0497 222.584 -94.672 0.415037 0.105605 -0.903655 164 166 171
-20.5278 238.845 -94.5701 0 0 1 169 179 181
-6.64773 216.386 -94.6033 0.0443435 -0.501121 -0.864241 161 162 128
-12.0603 244.344 -94.1893 0 0 1 43 90 140
-9.96546 241.1 -93.7955 0 0 1 79 76 64
-21.3763 220.747 -94.5644 0 0 1 234 240 243
-9.00365 229.535 -94.6377 -0.666812 0.743482 0.0509564 155 140 108
-21.8671 224.385 -94.4966 0 0 1 220 218 219
-7.47164 218.549 -94.5747 0 0 1 129 131 100
-20.6232 242.566 -94.6347 0 0 1 164 167 170
-23.8818 243.893 -94.6966 0.692329 -0.650032 0.313273 168 173 176
-17.5004 214.93 -94.449 0 0 1 170 173 180
-4.1667 231.196 -94.573 0 0 1 158 145 107
-7.94008 239.602 -94.589 0.713902 0.44665 0.539303 88 85 62
-28.243 226.599 -94.5001 0 0 1 249 249 247
-25.2531 239.527 -94.6821 0 0 1 206 200 200
-6.9285 232.954 -87.459 0 0 1 122 136 82
-26.829 234.904 -94.6916 0 0 1 172 174 137
-24.9295 236.282 -94.5692 0 0 1 178 184 169
-27.7729 238.973 -94.6834 0.933145 -0.316988 0.169587 153 161 116
-22.2074 235.957 -94.65 0 0 1 180 189 191
-27.1534 239.559 -94.6608 0 0 1 203 202 173
-27.0411 244.348 -94.5961 0 0 1 168 166 121
-25.0543 233.007 -94.6376 -0.182703 0.974831 -0.127768 164 167 126
-27.9072 215.426 -94.5524 0 0 1 175 181 179
-15.7134 230.402 -94.6452 0 0 1 166 166 169
-13.3403 217.889 -94.6137 0.115734 -0.147376 -0.982286 163 162 164
-27.5758 216.789 -94.5657 0 0 1 173 174 177
-21.6601 215.888 -94.5899 -0.208986 0.711173 0.671236 174 178 180
-25.7195 231.686 -94.5699 0.546602 0.665759 0.507929 187 187 150
-16.2805 228.59 -94.675 0 0 1 164 164 167
-15.5297 219.384 -94.6909 -0.601393 -0.00467389 0.79894 162 163 168
-25.9978 236.476 -94.6214 0 0 1 156 161 118
-25.5457 226.392 -94.6709 0 0 1 187 192 153
-5.94434 221.835 -94.6034 -0.44134 0.622163 -0.646631 152 143 113
-15.6257 217.41 -94.5569 -0.0594182 -0.405558 -0.912136 163 166 169
-12.7362 214.744 -94.6688 0 0 1 163 162 165
-13.5124 228.671 -94.5324 0 0 1 160 159 161
-9.18939 233.452 -94.3181 0 0 1 104 120 140
-27.2749 244.203 -94.5867 0 0 1 145 154 104
-5.3733 235.08 -86.0342 0.0200807 -0.0301574 -0.999343 62 77 44
-7.22569 237.535 -86.973 0 0 1 28 39 24
-22.0683 229.965 -94.5893 0 0 1 175 181 186
-26.5889 236.227 -94.6279 0 0 1 190 188 155
-13.1332 238.358 -94.6079 0.715992 -0.61423 -0.331778 158 152 119
-5.71681 234.083 -86.2473 0 0 1 90 106 62
-15.7415 230.577 -94.563 0 0 1 167 167 170
-26.3222 221.693 -94.5905 0 0 1 139 135 91
-24.6014 235.822 -94.5932 0 0 1 219 218 215
-25.4557 244.423 -94.8569 0 0 1 0 0 0
-13.3099 214.969 -94.5889 0 0 1 162 162 167
-13.3197 227.647 -94.629 0 0 1 162 163 165
-7.51137 235.725 -86.6398 0.819221 -0.531965 0.214219 75 97 55
-15.7986 223.674 -94.5859 0.635558 0.0243963 0.771667 166 167 171
-5.30843 215.461 -94.6205 -0.182088 0.0785287 -0.980141 142 136 104
-8.11065 236.386 -86.9905 0 0 1 47 58 33
-20.1324 217.95 -94.6339 0.324778 0.700642 -0.63531 210 210 214
-11.9112 223.052 -94.6611 -0.456921 -0.524815 -0.718187 174 173 173
-8.79148 244.25 -94.5931 0 0 1 43 42 35
-7.90822 230.614 -94.6791 0.792737 -0.36972 0.48464 160 150 118
-17.7788 221.151 -94.4812 0 0 1 164 164 168
-10.8145 242.462 -93.7962 0 0 1 91 145 154
-22.113 228.523 -94.6291 0 0 1 167 168 173
-27.8376 242.168 -94.6356 0 0 1 190 190 164
-28.4733 215.648 -94.4869 0.467416 0.600531 -0.648757 178 182 182
-8.57759 214.893 -94.6485 -0.585901 -0.130966 0.79973 125 116 87
-7.06646 234.927 -94.4741 0.607703 -0.239162 0.757297 140 128 97
-20.5129 232.515 -94.6113 0 0 1 170 177 183
-10.6015 226.843 -94.5457 0 0 1 149 145 109
-27.7885 238.774 -94.6151 0 0 1 155 163 113
-16.7899 243.3 -94.7233 0.866763 0.301018 -0.397631 159 160 162
-28.8331 229.922 -94.554 -0.375702 0.911808 0.165694 230 233 232
-10.8794 218.562 -94.6579 0 0 1 179 180 180
-4.95408 236.051 -85.5412 -0.167131 0.789877 -0.590053 82 91 54
-20.8107 234.045 -94.5699 0 0 1 176 186 188
-20.2691 241.937 -94.7561 0 0 1 163 166 169
-20.114 220.536 -94.5865 0 0 1 163 163 168
-4.92964 232.625 -88.0026 0 0 1 128 147 93
-11.3988 217.22 -94.6317 0 0 1 167 166 167
-22.743 229.751 -94.5395 0 0 1 179 186 189
-8.96645 241.444 -94.5993 0 0 1 36 42 23
-19.1679 236.974 -94.5846 0 0 1 165 175 177
-15.0774 224.501 -94.6099 -0.0409076 0.40241 -0.914545 162 162 166
-27.262 224.814 -94.6283 0 0 1 167 171 116
-4.66915 232.347 -89.0565 0 0 1 142 140 96
-5.19672 214.408 -94.6383 0 0 1 173 167 134
-13.8414 232.644 -94.5854 0 0 1 203 200 197
-18.0192 231.185 -94.6301 0 0 1 161 162 165
-21.918 236.133 -94.5387 0 0 1 177 187 189
-17.6786 228.27 -94.6197 0 0 1 165 165 169
-8.69917 220.881 -94.6119 -0.120915 -0.209043 0.970402 151 143 118
-13.8684 222.261 -94.5591 0 0 1 162 162 166
-27.0771 219.482 -94.5843 0 0 1 233 229 218
-7.6704 222.838 -94.5822 0 0 1 157 149 119
-22.6911 239.736 -94.5911 0 0 1 176 184 187
-5.4126 216.603 -94.5823 0 0 1 156 155 121
-25.5488 214.445 -94.5313 0.579478 -0.514843 0.631777 183 183 180
-28.1899 232.537 -94.2338 0 0 1 177 194 160
-21.1875 240.756 -94.6829 0 0 1 171 180 182
-6.2474 235.496 -85.705 0 0 1 52 69 44
-9.37348 221.902 -94.5449 0 0 1 159 155 122
-25.2459 236.458 -94.6835 0 0 1 159 161 127
-10.2187 230.675 -94.6197 0.898721 0.230116 0.373293 140 137 97
-11.5951 223.438 -94.6552 -0.0966634 0.130449 -0.986732 189 188 179
-11.5569 219.346 -94.6261 0 0 1 171 171 173
-23.7266 214.559 -94.491 0 0 1 214 208 194
-10.5892 223.054 -94.5577 0 0 1 114 119 75
-22.3727 243.966 -94.7244 0 0 1 165 169 172
-8.26716 221.65 -94.5577 0 0 1 129 133 98
-9.88762 232.374 -94.6719 -0.412566 -0.337177 -0.846227 146 138 101
-20.4409 237.084 -94.708 0 0 1 173 181 183
-9.96931 230.244 -94.6368 0 0 1 144 137 101
-25.4252 233.498 -94.6565 0 0 1 166 169 127
-23.0411 218.675 -94.5127 0.95516 0.0585004 -0.290253 166 168 170
-22.4632 234.928 -94.7201 0 0 1 179 188 190
-10.3118 228.777 -94.5742 0 0 1 151 146 112
-24.1679 216.472 -94.537 0 0 1 187 185 181
-21.4789 234.042 -94.5408 0.646594 -0.586465 0.487827 177 186 188
-7.78513 221.551 -94.5825 0.299866 0.199945 -0.932793 144 142 110
-9.52827 222.523 -94.5292 -0.519645 0.535971 -0.66536 162 157 124
-14.8275 216.103 -94.5581 0 0 1 163 164 168
-27.5419 218.12 -94.583 0 0 1 166 166 168
-15.1455 224.698 -94.6137 0 0 1 161 162 166
-6.02268 218.542 -94.599 0.612938 -0.191566 0.766557 152 145 112
-25.9361 231.395 -94.6318 0.140225 -0.504221 -0.852114 191 191 157
-27.5755 218.703 -94.6283 0.394991 0.443401 -0.804598 162 160 158
-16.3856 217.733 -94.6833 0 0 1 163 164 168
-20.0053 236.606 -94.5833 0 0 1 171 181 182
-26.8502 235.783 -94.6752 0 0 1 180 181 145
-4.82273 233.543 -86.4912 0 0 1 109 128 72
-8.77036 241.932 -94.5306 0 0 1 40 42 31
-4.81311 215.062 -94.5791 0.565096 0.693641 -0.446687 183 180 149
-26.8677 214.68 -94.4946 0 0 1 172 177 174
-9.38617 214.308 -94.6772 0.425242 -0.540939 -0.725641 189 188 184
-7.70291 237.693 -93.7415 0.170867 -0.407395 -0.897126 117 129 98
-22.176 220.243 -94.5525 -0.210196 -0.246474 -0.94608 160 159 161
-18.0515 239.667 -94.6929 0 0 1 162 166 168
-7.76473 229.343 -94.5677 0.0954563 -0.527117 -0.844414 161 145 113
-6.81178 234.73 -94.4832 0 0 1 122 112 82
-19.2468 227.46 -94.5518 -0.554797 0.455704 -0.696085 164 165 170
-8.25866 218.671 -94.5881 0 0 1 119 123 89
-13.0717 232.177 -94.6098 0 0 1 122 128 83
-22.0937 228.714 -94.5117 0 0 1 167 168 173
-25.8188 229.675 -94.7059 0 0 1 199 200 167
-20.3128 239.028 -94.6973 0 0 1 172 181 183
-12.3327 228.222 -94.6802 0 0 1 128 120 102
-4.10653 218.696 -94.6404 -0.0906561 -0.340734 -0.935779 134 134 97
-23.6847 224.789 -94.5806 0 0 1 173 159 128
-20.1921 215.833 -94.5397 0 0 1 125 166 206
-19.7841 241.547 -94.6451 0 0 1 160 163 167
-12.1704 220.581 -94.6562 0.748556 -0.325502 -0.577678 163 162 164
-26.4734 230.341 -94.7279 0 0 1 178 184 142
-20.887 236.649 -94.6859 0 0 1 176 182 185
-18.9482 241.412 -94.7821 0 0 1 159 163 167
-5.40629 237.972 -86.8458 0 0 1 27 38 24
-11.2623 219.355 -94.7195 0 0 1 174 174 175
-10.5877 230.346 -94.6267 0.145555 0.144851 -0.978689 156 151 118
-11.0822 222.304 -94.6535 0 0 1 164 153 142
-7.30508 234.514 -86.7718 0 0 1 37 44 25
-28.6218 229.137 -94.7935 0 0 1 130 147 123
-7.22302 229.955 -94.6418 -0.254113 0.498698 0.82869 176 159 128
-12.7879 241.868 -94.5723 0 0 1 135 134 94
-14.4827 215.531 -94.7006 0 0 1 165 164 169
-26.2022 239.58 -94.5573 0 0 1 155 154 112
-21.7386 214.417 -94.5922 0 0 1 181 179 182
-8.38512 225.813 -94.5501 -0.26299 0.66172 -0.702113 166 160 124
-8.47092 219.345 -94.6286 -0.28195 0.86649 -0.411946 123 122 93
-10.0824 240.648 -93.7722 0 0 1 132 130 106
-11.3237 222.187 -94.6856 0 0 1 192 189 184
-9.92211 231.943 -94.6477 0 0 1 143 137 101
-7.35054 222.594 -94.567 0 0 1 143 137 104
-12.0073 217.714 -94.6014 0 0 1 163 161 163
-20.9725 214.382 -94.5573 0.760088 0.570614 -0.310912 177 178 182
-21.3642 237.101 -94.6596 0.734674 -0.283901 0.616161 175 183 186
-15.6374 240.165 -94.5634 0 0 1 204 203 199
-25.2013 233.101 -94.6372 -0.431036 0.869794 0.24014 165 168 126
-8.43153 229.257 -94.5527 0.176136 0.982284 0.0639805 171 156 121
-27.8567 226.647 -94.6985 -0.253808 0.706287 0.660864 200 194 160
-8.11485 236.094 -86.4926 0 0 1 85 99 58
-21.9656 219.176 -94.5698 -0.534758 0.50192 -0.679787 164 164 167
-20.7322 219.997 -94.5545 0 0 1 211 211 218
-11.5763 228.705 -94.574 0.745414 0.630085 0.217601 148 146 109
-8.30558 226.799 -94.5768 0 0 1 165 153 118
-25.2198 242.637 -94.5466 0 0 1 169 177 179
-5.71612 227.707 -94.5712 -0.129622 -0.147291 -0.980563 149 140 104
-17.2362 244.191 -94.5841 0 0 1 164 165 167
-27.8369 223.624 -94.4098 0.209011 -0.264142 -0.941564 190 220 243
-5.92732 240.372 -94.5578 0.19832 -0.311733 -0.929242 79 73 64
-28.9152 225.621 -94.7475 -0.0151434 -0.0994561 -0.994927 157 163 107
-14.1803 239.939 -94.5707 0.902359 0.269594 -0.336255 190 185 152
-20.1858 235.505 -94.5391 0 0 1 174 184 185
-20.1436 228.7 -94.5512 0 0 1 164 165 170
-26.2234 232.64 -94.6308 0.331859 0.660417 -0.673586 174 179 140
-17.2247 234.75 -94.5687 0 0 1 160 159 164
-9.06983 236.372 -94.3336 0 0 1 123 119 86
-27.3762 237.275 -94.6263 0 0 1 158 162 118
-9.03186 231.716 -94.619 0.391831 -0.418331 -0.819432 143 127 92
-20.5787 240.936 -94.6587 0 0 1 160 165 168
-12.9004 243.915 -94.6061 0 0 1 140 147 100
-10.3405 225.69 -94.5797 -0.312793 0.124328 -0.941649 166 158 129
-13.9225 238.977 -94.5391 0 0 1 190 186 154
-14.1626 225.843 -94.5746 -0.40077 -0.140046 -0.905412 162 161 164
-20.9784 220.508 -94.5687 0 0 1 214 213 220
-25.0898 233.633 -94.6152 -0.0211637 0.815291 -0.578664 164 168 125
-7.91199 234.434 -94.5805 0 0 1 111 109 78
-25.3468 238.597 -94.561 0 0 1 211 211 207
-4.60561 225.465 -94.6426 0.654976 -0.067857 0.752596 159 154 119
-26.5458 241.258 -94.5708 0.825281 -0.563812 0.0320389 145 145 104
-22.0847 231.799 -94.6084 0 0 1 179 188 189
-13.3045 223.084 -94.6294 0 0 1 165 164 169
-27.2888 234.753 -94.6045 0 0 1 174 178 136
-6.17962 226.718 -94.6052 0 0 1 139 126 91
-5.76355 239.683 -94.5455 -0.639558 0.652117 0.407075 115 106 80
-9.34752 232.065 -94.6162 0.902256 -0.168781 0.396796 150 135 100
-22.0414 225.977 -94.6249 0 0 1 204 200 203
-18.9933 218.658 -94.6285 0 0 1 160 161 165
-11.6723 223.211 -94.6288 0 0 1 180 180 175
-14.5111 215.474 -94.6202 0 0 1 163 165 168
-10.2939 218.285 -94.6577 -0.221701 -0.340996 -0.913548 173 168 164
-14.816 221.623 -94.5748 0.058114 -0.227272 -0.972096 163 164 169
-27.1245 214.527 -94.4989 -0.00548119 0.783925 0.620831 174 178 177
-27.8838 229.55 -94.6827 0 0 1 172 174 128
-19.1872 214.41 -94.5035 0 0 1 185 184 192
-6.41206 221.957 -94.6265 -0.185982 -0.913456 -0.361951 140 134 99
-16.3377 217.45 -94.5916 0 0 1 163 164 168
-12.595 228.543 -94.6516 0.0643503 0.285144 0.956322 185 180 174
-4.51045 226.591 -94.5493 0 0 1 141 132 98
-23.4656 227.321 -94.5364 -0.104166 -0.573829 -0.812323 144 200 226
-22.3892 228.264 -94.5467 0 0 1 172 173 181
-18.5672 233.116 -94.6884 0 0 1 160 160 164
-13.2193 228.017 -94.517 0 0 1 162 162 165
-22.6119 232.828 -94.5299 0 0 1 179 187 189
-26.0628 241.397 -94.6967 0 0 1 198 198 185
-7.36581 223.714 -94.5834 0.848833 -0.24792 -0.466925 148 144 107
-18.519 238.961 -94.5832 0 0 1 163 167 169
-10.3241 227.335 -94.6071 -0.531512 -0.363493 0.765093 163 158 124
-25.4223 238.741 -94.7218 -0.604478 0.670038 -0.430878 184 179 163
-4.23296 232.958 -88.8279 0 0 1 132 154 87
-8.66629 229.5 -94.6275 -0.177845 -0.0827855 0.98057 173 158 123
-20.1473 241.798 -94.6062 0 0 1 162 165 169
-19.9892 242.996 -94.7463 0 0 1 167 167 171
-6.84413 241.812 -94.5873 0 0 1 70 71 71
-11.3631 244.203 -93.8643 0.76388 0.108103 0.636239 65 105 130
-10.8565 228.816 -94.5916 0.188928 0.284107 -0.939994 152 150 112
-5.45098 229.747 -94.5684 -0.23782 0.120815 -0.963766 173 158 123
-26.7088 230.979 -94.7045 -0.468358 -0.235736 -0.85151 178 181 141
-5.40215 222.777 -94.6564 0 0 1 158 152 116
-21.2741 229.665 -94.5369 0 0 1 165 166 170
-15.0623 226.967 -94.5907 0 0 1 162 162 164
-5.48844 232.454 -94.5925 0 0 1 150 141 111
-23.734 235.19 -94.6056 0 0 1 182 190 190
-8.13904 232.211 -94.5597 0 0 1 149 143 99
-9.80952 215.682 -94.6526 0.813586 -0.148414 0.562184 176 176 172
-6.71099 234.245 -94.4075 0.588943 0.0445823 0.806944 115 109 70
-23.9594 223.396 -94.6306 0 0 1 163 153 117
-14.0365 241.159 -94.5627 0 0 1 172 172 139
-14.8985 228.987 -94.5463 0 0 1 163 162 165
-10.6031 215.488 -94.6855 0.540504 -0.497242 -0.67868 173 175 174
-23.5116 239.426 -94.5474 0 0 1 179 187 189
-17.3709 235.405 -94.617 0 0 1 160 160 164
-4.09993 242.314 -94.527 0 0 1 141 127 101
-26.4436 217.728 -94.5507 0 0 1 212 209 201
-13.6815 220.373 -94.6587 0 0 1 164 164 169
-28.1556 234.61 -94.756 0.453808 -0.756588 -0.470779 146 152 112
-23.069 243.024 -94.5833 0 0 1 164 167 171
-28.5873 225.506 -94.4366 0 0 1 110 133 154
-5.12265 214.833 -94.5975 -0.224729 -0.106372 -0.968598 151 150 114
-16.6131 218.221 -94.5931 0.273605 -0.0293565 -0.961394 163 164 168
-25.2315 242.749 -94.6599 0 0 1 173 181 183
-22.2703 228.445 -94.5346 0 0 1 169 169 174
-8.08153 224.244 -94.6014 0 0 1 156 156 122
-8.31416 236.11 -89.4762 0 0 1 29 36 22
-11.9006 224.29 -94.6374 0.694537 -0.621679 0.362123 186 185 183
-22.8827 226.15 -94.5409 0 0 1 151 181 203
-13.715 229.757 -94.5766 0.491991 0.870057 -0.0307454 156 156 158
-5.25619 235.74 -85.7003 0.249421 0.287576 -0.92471 80 92 50
-20.5275 223.211 -94.5867 -0.653784 -0.296828 -0.696032 163 163 167
-16.7614 215.167 -94.5142 -0.513183 0.245219 -0.822503 162 167 171
-14.6779 244.328 -94.6589 0.333144 0.125078 0.934543 175 173 139
-13.5184 222.397 -94.6196 0.772577 -0.0655593 -0.631528 164 163 168
-22.4352 225.333 -94.5215 0 0 1 161 179 188
-23.4862 227.363 -94.5635 -0.5271 -0.267139 -0.806723 143 198 212
-11.0525 241.582 -94.0345 0.844525 0.494534 -0.205458 180 171 181
-26.2709 228.376 -94.7347 0.938431 0.291384 0.185586 172 177 126
-16.0814 217.482 -94.6586 0 0 1 163 165 168
-16.7426 240.948 -94.6299 0 0 1 155 158 160
-10.3608 227.478 -94.582 0 0 1 163 155 122
-15.3394 218.257 -94.6855 0.935907 0.320687 0.145731 163 163 167
-5.22831 222.002 -94.5999 0.695266 0.178104 0.696336 150 145 109
-24.6768 214.944 -94.1867 0 0 1 157 183 229
-19.3781 220.231 -94.5444 -0.454091 0.714809 -0.531836 159 162 166
-4.6865 233.955 -94.306 0 0 1 109 94 75
-9.00044 241.042 -94.5876 0.705318 -0.551313 -0.445624 43 49 28
-10.4335 228.334 -94.576 0 0 1 173 163 130
-4.25119 232.877 -88.9378 -0.601707 -0.066288 -0.795962 136 154 90
-8.27867 217.673 -94.5718 0.320429 0.0348742 0.94663 159 155 124
-17.9869 217.443 -94.5852 0 0 1 172 180 182
-24.9275 215.336 -94.1556 0 0 1 102 136 221
-10.6415 229.112 -94.5262 -0.195764 0.755657 -0.625027 156 146 111
-9.59703 225.748 -94.5271 0 0 1 169 159 126
-27.5547 239.791 -94.599 0.865848 -0.389511 0.313989 190 188 156
-26.4843 240.334 -94.556 -0.00446468 0.0367544 0.999314 149 148 103
-25.7975 233.951 -94.5606 0 0 1 170 176 134
-13.4149 215.835 -94.6076 0 0 1 162 162 166
-8.3512 234.993 -94.4262 0 0 1 122 119 81
-21.4601 215.793 -94.6017 -0.683819 0.726648 -0.0661399 172 177 178
-28.5461 224.855 -94.6625 0 0 1 142 149 136
-18.8711 243.372 -94.6349 0 0 1 162 166 167
-23.0651 218.071 -94.5099 0.255078 -0.36478 0.895472 169 169 172
-4.95883 232.24 -88.6683 0 0 1 128 150 87
-11.5556 231.109 -94.5699 0 0 1 166 158 123
-26.1852 220.514 -94.5959 0 0 1 188 185 172
-12.2657 229.489 -94.6495 -0.15691 -0.245582 -0.956592 119 124 77
-24.1241 217.394 -94.6206 0 0 1 178 176 177
-6.8633 217.497 -94.5912 0 0 1 167 166 135
-4.42419 223.662 -94.6022 0 0 1 140 134 98
-26.6658 239.299 -94.5907 0 0 1 180 179 138
-4.0847 231.222 -94.5645 0 0 1 147 138 102
-17.9005 233.454 -94.5861 0 0 1 160 160 164
-26.173 233.41 -94.642 0 0 1 198 198 162
-27.6306 238.022 -94.7027 0.525625 0.83757 0.148976 156 165 115
-9.58129 232.865 -94.6572 0.927035 -0.323696 0.189279 148 138 99
-20.3918 227.211 -94.5372 0 0 1 166 167 172
-15.811 242.217 -94.5926 0 0 1 141 128 110
-28.4822 225.23 -94.4426 0 0 1 177 194 205
-6.27823 217.211 -94.6425 0.574947 -0.436405 -0.692089 165 165 132
-21.6002 229.364 -94.513 0 0 1 165 167 171
-20.6353 223.377 -94.4821 0 0 1 163 164 169
-13.5845 223.221 -94.5334 0 0 1 162 164 168
-6.3256 239.609 -94.5396 0 0 1 138 128 103
-5.03589 238.114 -87.1665 0 0 1 23 32 22
-27.2055 229.033 -94.765 0 0 1 190 192 150
-7.23078 234.344 -94.3305 0 0 1 115 108 82
-26.2109 240.777 -94.6649 -0.655723 0.754379 0.0306698 155 151 113
-27.5014 226.818 -94.8236 0.0396368 0.705002 -0.708096 179 186 141
-15.0933 244.07 -94.5463 -0.465329 0.884115 -0.0425396 156 163 123
-26.7329 234.542 -94.6972 0 0 1 185 188 148
-6.88889 237.054 -86.4162 0 0 1 41 57 36
-26.5418 234.749 -94.5848 0 0 1 196 197 162
-9.13965 233.052 -94.5939 0 0 1 149 141 114
-15.8317 219.434 -94.6049 0.709615 0.275758 -0.648386 159 160 165
-12.603 228.691 -94.7543 0 0 1 161 147 133
-13.6999 219.99 -94.5936 0 0 1 164 163 168
-12.8073 231.687 -94.552 0.0749121 -0.457858 -0.885864 122 131 82
-19.457 216.711 -94.5717 -0.280471 0.589492 -0.757519 167 172 178
-5.39355 216.872 -94.6652 -0.582837 0.682737 0.440648 169 168 134
-10.8383 230.232 -94.6459 0 0 1 154 143 109
-16.9167 227.471 -94.6256 0 0 1 164 164 169
-23.4656 235.595 -94.5682 0 0 1 181 189 189
-18.2917 224.445 -94.537 0.0239021 -0.749698 0.661349 167 168 173
-25.3918 237.407 -94.7053 0.582979 -0.750521 -0.311215 164 161 131
-12.244 234.036 -94.5215 0 0 1 160 146 109
-7.98975 233.863 -94.4665 -0.102555 0.881071 -0.461732 69 77 55
-20.6821 216.3 -94.4861 -0.618842 0.157382 -0.769588 177 194 206
-17.2362 242.788 -94.5342 0 0 1 157 158 160
-8.87961 220.189 -94.6011 0 0 1 137 130 106
-7.07945 238.336 -94.2177 0 0 1 68 104 96
-15.8975 215.498 -94.6357 0 0 1 162 165 170
-15.3221 224.902 -94.6337 0.000708031 0.964862 -0.262755 161 161 166
-17.0188 233.221 -94.5725 0 0 1 162 163 166
-12.4487 218.772 -94.7149 0 0 1 164 166 169
-24.0994 219.354 -94.5542 0 0 1 161 162 164
-25.4786 220.417 -94.5581 0 0 1 155 153 149
-6.15644 216.616 -94.5865 -0.0499527 -0.671787 -0.739058 169 168 131
-5.37934 232.092 -94.6264 0.8742 -0.161244 0.458012 133 127 92
-4.9898 230.002 -94.5182 0 0 1 165 146 113
-19.1262 231.782 -94.5939 0 0 1 160 160 165
-25.8105 224.181 -94.6705 -0.153377 -0.858935 0.488576 158 158 113
-5.3931 219.278 -94.6665 0 0 1 148 143 112
-14.1538 239.949 -94.4912 0.788571 -0.586254 -0.18564 190 184 151
-19.4437 218.405 -94.5436 0.711632 0.702189 0.0226204 163 163 168
-29.0147 221.385 -94.5593 0 0 1 141 148 99
-9.10329 232.796 -94.6279 0 0 1 147 131 99
-22.9835 220.235 -94.6002 0 0 1 161 162 163
-5.98682 234.681 -86.0848 0.964821 -0.168664 0.201677 69 82 44
-4.8787 217.062 -94.6622 0.624794 0.503305 -0.596922 141 137 102
-7.36396 233.062 -87.553 0 0 1 106 131 71
-10.5378 215.318 -94.6145 0 0 1 173 176 175
-7.93249 216.259 -94.5918 0 0 1 140 134 103
-15.0989 241.736 -94.6185 -0.19604 0.949029 0.246803 122 120 83
-13.52 214.846 -94.6088 -0.409439 -0.740353 -0.53314 163 164 168
-6.51298 216.605 -94.6129 -0.164955 0.110897 -0.980047 150 148 114
-14.2956 241.865 -94.544 0 0 1 187 178 149
-21.2998 240.821 -94.6305 0 0 1 172 180 182
-14.9296 217.532 -94.7182 0.624663 -0.722274 0.296846 162 164 169
-13.0255 231.257 -94.6068 0 0 1 130 124 94
-28.6859 226.709 -94.5322 0 0 1 179 194 178
-4.11547 243.152 -94.5456 0 0 1 156 145 119
-26.5877 228.996 -94.7741 0.155111 0.616818 -0.771671 179 182 135
-22.0991 237.302 -94.7149 0 0 1 176 185 189
-8.16829 224.742 -94.5646 -0.349532 0.0579056 -0.935133 166 161 129
-20.8094 237.337 -94.489 0 0 1 172 181 184
-18.4489 234.243 -94.611 0.539011 -0.765546 0.351292 163 164 167
-28.9386 214.844 -94.4859 0.746969 0.456021 0.483821 177 180 179
-15.7673 220.682 -94.6095 0.000448895 -0.169403 -0.985547 161 161 165
-4.51721 240.54 -94.5935 0.480632 0.780911 0.398961 172 164 143
-27.596 234.882 -94.7709 0 0 1 195 197 158
-4.85993 224.435 -94.5979 0 0 1 137 132 96
-7.69756 218.753 -94.585 -0.349525 0.640242 -0.684049 145 139 107
-12.2953 229.425 -94.6552 0.0391357 -0.141364 -0.989184 119 124 78
-10.1451 238.509 -93.9884 0 0 1 173 174 183
-27.802 222.295 -94.6408 0.988129 0.142469 0.0574813 142 145 116
-12.7126 221.33 -94.5569 0 0 1 163 161 166
-28.5921 225.237 -94.5395 -0.324039 -0.917316 -0.231365 133 148 143
-21.2301 219.207 -94.5554 0 0 1 205 214 227
-12.4468 224.746 -94.6547 0.290226 -0.16353 -0.942882 169 166 167
-12.874 242.028 -94.5446 0 0 1 137 136 95
-6.50331 229.243 -94.6338 0 0 1 166 151 118
-26.6373 225.475 -94.703 0 0 1 180 187 141
-17.3732 220.577 -94.5194 0 0 1 163 165 169
-15.8792 239.51 -94.6199 -0.234017 0.0829584 -0.968687 163 164 165
-25.6347 223.163 -94.5958 0 0 1 168 161 121
-13.8093 237.459 -94.6085 0 0 1 170 166 132
-7.47973 216.793 -94.5901 0.740812 0.0993274 0.664328 159 161 128
-22.4659 218.451 -94.5374 0 0 1 168 171 172
-13.1231 220.5 -94.6107 0.259074 -0.8193 -0.511497 163 164 168
-19.9007 215.807 -94.5785 0.00238826 -0.0767079 -0.997051 176 193 212
-19.0543 220.009 -94.5384 0 0 1 158 163 166
-24.6636 217.717 -94.5729 0 0 1 179 178 178
-27.4073 218.679 -94.5575 0.27126 -0.334581 -0.902482 163 161 162
-24.7461 243.819 -94.6425 0 0 1 163 167 170
-25.4531 216.15 -94.3493 0 0 1 235 236 240
-16.4282 227.935 -94.5879 0 0 1 162 163 166
-29.1068 220.57 -94.5826 0 0 1 147 148 101
-28.121 227.972 -94.8157 -0.353972 -0.0937133 -0.930549 175 181 163
-7.0562 239.659 -94.5371 0 0 1 89 82 66
-13.4818 220.078 -94.6357 -0.503529 0.274832 -0.819101 164 164 170
-21.0433 217.432 -94.508 0.0122496 0.995705 -0.0917687 179 189 207
-24.8184 230.658 -94.6327 -0.0331465 0.43365 -0.900471 166 170 125
-23.9842 239.014 -94.8232 0 0 1 174 178 182
-23.3692 223.596 -94.5927 0 0 1 167 152 121
-24.1295 237.893 -94.6055 0.353551 0.863038 0.360786 173 182 183
-10.8219 218.759 -94.6151 0 0 1 179 179 179
-27.8158 227.355 -94.7076 0 0 1 161 170 120
-19.6315 219.187 -94.5617 0 0 1 162 165 169
-7.13263 237.721 -87.17 0 0 1 33 50 33
-10.0866 232.338 -94.6283 0.138935 -0.627451 -0.766161 144 133 98
-12.6245 232.466 -94.556 0 0 1 135 133 93
-20.4945 231.416 -94.5195 0 0 1 165 165 170
-17.2627 236.203 -94.533 0 0 1 166 169 173
-18.1535 240.525 -94.7022 0 0 1 157 161 164
-23.74 243.294 -94.6118 0 0 1 166 171 174
-27.9356 226.174 -94.7255 0.502363 -0.57721 0.643785 184 205 193
-4.36029 233.946 -86.2022 0 0 1 102 124 68
-17.8208 239.353 -94.572 0 0 1 162 166 169
-27.5231 218.781 -94.5473 -0.133224 0.0673513 -0.988795 160 157 158
-27.8848 214.671 -94.5349 0.476359 -0.272792 -0.835863 175 178 177
-25.8698 241.587 -94.5867 0 0 1 215 215 214
-11.5573 214.73 -94.5841 0 0 1 163 163 166
-24.1432 230.908 -94.5256 0.17393 -0.29802 -0.93858 184 189 160
-12.3216 218.91 -94.597 0.599326 0.786042 0.151481 163 165 168
-14.065 226.382 -94.6073 0.41056 0.00270644 0.911829 160 159 161
-6.56298 217.443 -94.5781 0.630596 0.274507 -0.725944 141 134 102
-26.9238 244.508 -94.6429 0 0 1 163 159 121
-9.81752 238.945 -93.7789 0 0 1 177 199 182
-12.9382 217.599 -94.7328 0 0 1 165 166 170
-22.2991 235.086 -94.5745 0 0 1 178 188 190
-29.0122 228.675 -94.5183 0 0 1 149 160 187
-17.4259 220.352 -94.5034 0 0 1 163 163 167
-9.92855 219.825 -94.6212 -0.0752484 -0.192775 -0.978353 120 128 85
-17.1041 221.321 -94.5476 0.986476 0.0532434 0.155019 162 161 165
-17.3416 242.853 -94.6432 0 0 1 157 159 160
-5.41931 227.788 -94.597 -0.36285 -0.508977 -0.780566 167 156 120
-12.4222 219.931 -94.605 0 0 1 167 166 169
-5.21373 234.901 -85.9083 0 0 1 52 61 34
-13.6017 236.5 -94.5154 0 0 1 157 155 119
-9.146 218.212 -94.5944 0.766331 0.543484 -0.342582 121 125 87
-12.5017 228.375 -94.6191 0.123245 -0.0911238 -0.988184 155 143 124
-13.6771 228.344 -94.5956 0.217416 0.0660484 -0.973842 160 160 163
-20.2577 215.793 -94.5058 0 0 1 123 173 204
-8.84469 239.232 -94.5259 0 0 1 44 45 35
-25.5093 241.906 -94.633 0 0 1 171 178 178
-13.7827 220.383 -94.629 0 0 1 164 164 169
-20.2186 244.284 -94.6551 0.705033 -0.238853 0.667741 163 167 169
-5.48098 216.77 -94.6302 0 0 1 153 151 116
-25.364 233.722 -94.6528 0 0 1 162 170 123
-15.3338 238.785 -94.5495 0 0 1 193 190 181
-17.2519 226.015 -94.5802 0 0 1 164 165 170
-10.8872 225.833 -94.6617 0 0 1 145 146 106
-8.56072 214.623 -94.6598 0.43118 -0.0916283 -0.897601 113 106 77
-20.6635 219.418 -94.5352 -0.328261 -0.52832 -0.783022 213 214 219
-15.3024 222.846 -94.6073 0 0 1 163 165 170
-5.17107 226.062 -94.6178 -0.0969987 0.491779 -0.865301 149 140 105
-25.1165 226.741 -94.6781 0 0 1 197 201 170
-15.8614 226.911 -94.4894 0 0 1 161 162 166
-24.7697 232.084 -94.6386 0 0 1 156 164 119
-12.9546 216.992 -94.6451 0.264376 0.124872 0.956301 160 159 163
-5.41468 214.499 -94.6245 0.835918 0.351416 -0.421601 179 179 147
-27.7293 242.473 -94.6862 0.380469 0.523939 -0.762057 190 192 161
-5.95698 221.283 -94.5974 0 0 1 142 133 103
-20.7077 221.34 -94.5567 0.375427 0.875038 0.305553 171 173 178
-12.7814 220.449 -94.6171 0.831533 0.460981 -0.309919 163 164 167
-15.97 218.593 -94.5308 0.802269 0.224614 0.553095 163 165 169
-20.0305 228.312 -94.5708 0 0 1 165 166 171
-14.7134 234.713 -94.7115 0 0 1 177 176 175
-7.39147 223.184 -94.5749 0.0974247 0.259866 -0.960718 137 133 98
-12.8507 234.266 -94.542 0 0 1 181 173 140
-7.82787 232.703 -94.6998 0 0 1 176 170 133
-20.6526 226.238 -94.506 0 0 1 165 167 172
-5.38329 219.526 -94.6039 0.698801 0.153211 0.698715 143 136 104
-13.8118 242.057 -94.4974 0 0 1 139 147 100
-23.8158 239.504 -94.6755 -0.695536 0.316851 -0.644852 178 187 189
-22.9667 232.725 -94.7275 -0.231854 0.889003 -0.394863 166 167 170
-17.0383 241.016 -94.702 -0.138407 0.953316 -0.26839 155 158 160
-25.2987 230.651 -94.5406 0 0 1 188 188 153
-13.5468 230.449 -94.6006 0 0 1 170 170 172
-24.4674 223.557 -94.5684 0 0 1 161 155 115
-13.7826 214.344 -94.4825 0 0 1 164 166 170
-6.94171 220.921 -94.5653 0 0 1 155 151 120
-25.2623 242.9 -94.6543 0.209339 -0.766634 -0.607 173 181 183
-13.6944 238.71 -94.5581 0 0 1 196 188 160
-11.9247 215.661 -94.6558 0.855961 0.373822 0.357194 161 162 164
-24.4854 232.846 -94.5179 0 0 1 164 168 131
-22.1462 220.158 -94.537 0 0 1 158 159 168
-5.52719 232.35 -88.2703 0 0 1 139 163 101
-12.4118 225.837 -94.6259 -0.396633 -0.395681 -0.828323 167 167 169
-26.4377 233.517 -94.6041 0.0154414 0.115585 -0.993178 186 188 149
-17.1697 241.88 -94.6021 0 0 1 159 160 161
-19.6074 234.857 -94.5882 0 0 1 173 183 185
-6.79188 226.541 -94.5882 0 0 1 156 144 108
-9.8734 220.077 -94.6066 0 0 1 124 128 89
-10.6452 235.883 -94.5481 0 0 1 148 145 100
-15.818 218.396 -94.5566 0.717817 -0.482371 0.502053 162 164 169
-23.8134 231.066 -94.5931 0 0 1 206 207 195
-18.3449 241.298 -94.6344 0 0 1 158 162 165
-24.3264 225.991 -94.6405 0 0 1 184 178 140
-25.0866 240.897 -94.7087 0 0 1 172 176 179
-28.3904 244.104 -94.6126 0 0 1 156 160 121
-4.0719 235.967 -86.2821 0 0 1 49 59 35
-29.0749 241.781 -94.75 0 0 1 191 189 153
-10.0386 220.443 -94.6135 0 0 1 128 131 94
-25.3645 214.798 -94.5268 0 0 1 199 196 192
-28.246 242.788 -94.6146 0 0 1 183 183 147
-20.0004 237.694 -94.6872 0 0 1 172 180 182
-10.0567 237.89 -94.1221 0 0 1 191 177 188
-19.973 223.857 -94.6265 0 0 1 163 163 167
-23.5084 238.479 -94.5998 0 0 1 179 188 189
-12.4613 232.441 -94.528 0 0 1 162 157 122
-7.07843 225.722 -94.5484 0 0 1 169 158 126
-16.4274 226.553 -94.5257 0.925874 -0.156053 0.344099 163 164 169
-8.5367 228.756 -94.5929 0.103896 -0.408229 -0.906948 158 141 104
-19.5884 237.686 -94.6664 -0.40845 0.810143 -0.42052 169 178 180
-6.92659 227.62 -94.6173 -0.224083 -0.121052 0.967023 160 148 114
-24.5873 239.928 -94.618 0 0 1 173 182 183
-12.527 235.989 -94.5451 0 0 1 151 148 111
-10.2338 227.26 -94.6607 0.804613 0.326639 0.495889 159 156 121
-22.6922 226.152 -94.6003 0 0 1 143 160 180
-26.7055 220.797 -94.4889 0 0 1 143 152 172
-9.85311 229.412 -94.6628 0 0 1 169 156 122
-18.5841 231.327 -94.5728 0 0 1 163 164 166
-5.04794 215.752 -94.6215 0 0 1 182 179 149
-10.504 240.671 -93.9712 0.814525 0.525436 0.245897 146 173 152
-9.50022 224.962 -94.5826 0 0 1 173 159 126
-16.4416 228.747 -94.5953 -0.355823 0.895069 -0.268777 164 164 167
-12.2602 243.766 -94.5956 0 0 1 126 125 86
-25.2082 230.813 -94.6693 0 0 1 187 186 149
-23.4624 243.926 -94.667 0 0 1 164 168 171
-12.6704 241.458 -94.5893 0.598461 0.542236 -0.589766 141 140 99
-16.2095 225.227 -94.5321 0 0 1 163 163 168
-11.2926 214.357 -94.6059 0 0 1 163 163 165
-27.4313 226.624 -94.7953 0.750782 -0.574409 0.32616 166 175 126
-9.87122 215.777 -94.7025 0 0 1 176 176 172
-22.3211 234.079 -94.6209 0 0 1 179 188 190
-11.0641 234.497 -94.5731 0 0 1 179 167 135
-23.2683 214.569 -94.6117 -0.365025 0.101744 -0.925422 196 193 183
-20.5177 225.629 -94.5908 0 0 1 165 167 172
-21.6613 222.344 -94.6298 0.579102 -0.712547 -0.396129 202 201 208
-8.78998 224.389 -94.516 0.0656545 0.11659 -0.991008 174 168 137
-28.1112 229.438 -94.8394 0 0 1 165 169 123
-16.8571 234.63 -94.5532 0 0 1 160 161 165
-17.8036 241.428 -94.664 0.966168 0.248605 -0.0686664 162 165 167
-25.876 228.3 -94.5765 0.118369 -0.0420257 0.99208 191 194 158
-9.05616 227.465 -94.5157 -0.558709 -0.391675 -0.731051 157 151 114
-27.24 241.746 -94.6813 0 0 1 154 158 119
-27.0886 241.836 -94.5719 0.120989 0.263251 -0.95711 140 145 102
-19.6941 217.912 -94.4978 0 0 1 163 165 169
-20.174 224.852 -94.5256 0 0 1 166 169 173
-15.2304 226.145 -94.5991 0 0 1 162 162 166
-19.7431 217.531 -94.5029 -0.412005 0.131753 -0.901606 163 165 169
-27.4699 218.993 -94.6286 0 0 1 171 167 164
-25.7728 241.618 -94.5872 0.626547 0.764232 -0.152932 189 188 192
-18.1467 240.418 -94.6396 0 0 1 157 161 164
-6.75465 230.834 -94.5761 -0.657818 0.7514 0.0517041 160 142 107
-21.1817 221.316 -94.522 0 0 1 212 213 220
-13.2514 224.006 -94.5468 0 0 1 162 162 167
-27.6402 222.232 -94.6108 0 0 1 140 140 134
-4.05852 225.09 -94.6287 0 0 1 133 130 92
-12.8832 221.189 -94.5714 0 0 1 164 164 168
-10.5471 227.679 -94.5373 0 0 1 150 144 109
-18.1086 241.736 -94.5466 -0.44014 -0.269475 0.856539 161 164 166
-28.4489 227.788 -94.7728 0 0 1 142 140 123
-10.9396 215.665 -94.7189 0 0 1 171 171 172
-4.42227 242.595 -94.56 0 0 1 164 154 133
-14.381 221.784 -94.5504 0 0 1 163 164 168
-6.27379 233.267 -86.7132 0 0 1 85 100 54
-28.6532 238.793 -94.6754 0 0 1 186 191 151
-14.3073 242.293 -94.4952 0.902352 0.111641 0.41629 177 181 144
-13.5472 234.47 -94.5335 0 0 1 144 143 105
-13.5254 240.887 -94.5145 0 0 1 139 146 105
-4.09975 226.635 -94.6008 0 0 1 146 138 101
-26.4966 235.828 -94.6608 0.402048 0.343968 -0.848554 170 170 133
-12.4105 221.537 -94.5675 0 0 1 161 159 161
-6.0472 241.071 -94.5266 0 0 1 68 61 59
-7.13017 240.953 -94.551 -0.249675 -0.466846 -0.848362 117 114 106
-25.9848 240.02 -94.5657 0 0 1 161 152 120
-13.1579 219.619 -94.5791 0 0 1 165 166 170
-10.8166 218.287 -94.6901 0 0 1 179 178 178
-14.8101 228.242 -94.5121 0 0 1 162 163 165
-8.27338 230.881 -94.6211 0.685444 0.000314722 0.728126 160 150 117
-15.1299 214.913 -94.5004 0 0 1 160 164 167
-7.8175 240.797 -94.5343 0 0 1 53 46 43
-7.59628 226.483 -94.6371 0 0 1 158 151 114
-28.8098 214.77 -94.5643 0 0 1 176 180 178
-21.9248 214.411 -94.4965 -0.217631 0.975593 0.0292313 178 179 182
-18.8816 242.317 -94.7454 0 0 1 159 159 164
-10.7704 228.55 -94.6055 -0.249707 -0.174588 0.952452 146 142 106
-11.087 229.671 -94.6519 0.120688 0.63206 -0.765464 144 143 103
-18.2507 218.716 -94.5853 0.61562 -0.264026 0.742497 159 164 167
-21.139 230.251 -94.6104 0 0 1 163 166 170
-27.1856 243.992 -94.6036 0.0101445 -0.079884 -0.996753 155 162 111
-27.9561 218.915 -94.6023 0 0 1 155 154 155
-22.6157 234.626 -94.734 0 0 1 180 188 190
-19.0885 228.131 -94.5294 0 0 1 163 163 167
-5.63335 224.411 -94.6235 0 0 1 138 127 92
-6.15532 233.308 -94.0726 0 0 1 103 124 146
-6.71423 234.37 -86.4833 0 0 1 88 110 62
-18.9659 233.506 -94.5637 0.471585 0.462191 -0.750991 166 165 168
-27.8521 239.594 -94.7263 0 0 1 161 165 122
-19.2922 229.584 -94.5699 0.0894248 -0.291263 -0.952454 162 162 165
-12.7798 237.564 -94.5859 0 0 1 155 150 115
-28.0397 214.341 -94.4906 0 0 1 176 179 178
-5.30413 235.328 -86.0023 0 0 1 62 78 42
-7.27015 214.799 -94.5927 0.902007 0.040345 0.429832 167 160 126
-29.0366 224.892 -94.7701 0.70903 -0.112076 0.696215 167 169 117
-18.2562 235.321 -94.5856 0 0 1 169 174 178
-5.27339 217.47 -94.6452 0 0 1 168 168 136
-23.2977 226.864 -94.519 0 0 1 243 244 246
-14.6724 227.693 -94.6341 0 0 1 162 162 164
-13.7797 240.932 -94.5267 0 0 1 149 147 112
-24.112 240.276 -94.5402 0 0 1 178 187 188
-17.4992 229.413 -94.5918 0 0 1 163 164 168
-14.5484 243.308 -94.5133 0 0 1 169 172 133
-28.3284 231.68 -94.6767 -0.132061 -0.0668466 0.988985 171 170 123
-21.2774 234.678 -94.5849 -0.616461 -0.605487 -0.50335 174 184 186
-25.2735 236.743 -94.6641 -0.643857 0.764808 0.022729 157 158 127
-19.4732 237.677 -94.6728 0.592268 -0.601105 0.536555 166 176 177
-7.32137 223.767 -94.5888 -0.634996 0.396557 -0.662965 155 148 117
-7.09165 224.148 -94.5996 0 0 1 151 139 105
-22.6049 243.693 -94.5778 -0.411688 -0.570129 -0.710961 165 169 172
-26.2928 222.438 -94.6829 0 0 1 154 146 110
-25.4504 227.42 -94.6029 0 0 1 194 196 157
-11.507 233.076 -94.5867 0 0 1 159 148 112
-16.4275 222.972 -94.6541 0.27765 0.887662 0.367378 166 168 172
-12.3519 240.072 -94.5666 0 0 1 167 160 123
-8.90848 233.461 -94.3399 0 0 1 76 107 130
-6.66999 225.852 -94.5617 0 0 1 153 146 111
-28.1081 230.52 -94.7796 0 0 1 156 154 113
-19.564 240.301 -94.5742 0 0 1 159 163 165
-11.0071 230.45 -94.6141 -0.0883075 0.75414 -0.650749 150 144 110
-17.0307 216.498 -94.674 0 0 1 163 166 170
-12.9201 237.971 -94.5614 0.804023 0.341299 0.48689 155 150 113
-15.1877 243.836 -94.6222 0.128977 0.258416 -0.957385 134 138 95
-18.8516 220.891 -94.6419 -0.458453 0.145923 0.876657 161 164 167
-15.5361 222.752 -94.5637 -0.617223 -0.316658 0.720252 163 164 169
-12.9192 233.785 -94.577 0 0 1 166 160 125
-13.3666 227.865 -94.7734 0 0 1 161 159 161
-24.1892 219.99 -94.546 0 0 1 159 159 160
-27.3333 227.799 -94.7074 0.98644 -0.0581795 0.153464 182 185 140
-6.46108 238.551 -94.4877 0 0 1 21 24 32
-15.81 218.929 -94.5414 0 0 1 162 162 166
-14.1038 220.732 -94.5841 0.920845 -0.369656 -0.124091 162 165 169
-24.3603 231.075 -94.6846 -0.614853 0.783302 -0.0916135 161 167 127
-25.8112 220.089 -94.5555 0.435813 0.287316 -0.852946 167 163 159
-9.05178 217.757 -94.5522 0.661965 0.662445 -0.35067 117 122 81
-13.3714 225.608 -94.7123 0 0 1 160 159 161
-19.94 218.252 -94.5284 0.443815 -0.4068 -0.798462 165 168 176
-17.8255 225.217 -94.5412 0 0 1 164 167 172
-21.7061 229 -94.5276 0 0 1 165 167 171
-22.5474 229.712 -94.465 0 0 1 175 182 186
-14.1408 214.934 -94.5598 0 0 1 164 166 169
-12.6905 238.73 -94.5539 -0.0796067 -0.0538079 -0.995373 156 154 115
-4.35757 235.145 -85.9475 0 0 1 74 94 53
-26.2108 238.702 -94.5947 -0.314945 0.905109 -0.285635 163 162 118
-25.3391 234.455 -94.5312 0 0 1 160 166 122
-15.05 219.721 -94.5533 -0.162221 0.986411 -0.0260237 162 162 165
-4.42529 217.267 -94.6242 0 0 1 169 165 132
-26.3301 228.293 -94.7148 0.957627 -0.148306 -0.246894 171 177 123
-19.1459 241.494 -94.662 0 0 1 159 163 166
-13.1434 214.626 -94.6837 0 0 1 164 163 166
-6.11702 225.192 -94.5719 0 0 1 170 158 122
-10.1238 228.269 -94.6519 0 0 1 153 147 109
-24.2332 237.604 -94.6285 0 0 1 171 181 182
-10.8303 239.185 -94.2526 0 0 1 172 166 176
-7.61995 241.987 -94.5078 0.881384 -0.405091 -0.243029 66 66 65
-6.80593 226.066 -94.6051 0 0 1 153 143 109
-15.2536 216.083 -94.6257 0.970039 -0.156956 -0.185442 163 165 169
-11.4154 219.423 -94.6238 0 0 1 174 174 175
-12.3139 242.611 -94.5318 -0.399973 -0.915805 0.0363688 112 107 73
-23.6315 241.005 -94.6298 0 0 1 175 184 186
-19.4659 234.825 -94.5682 0.337174 -0.046824 -0.940277 174 183 186
-24.7368 229.094 -94.5265 0 0 1 182 180 139
-10.0315 214.343 -94.6221 0 0 1 176 176 176
-27.7844 235.834 -94.7369 0 0 1 176 181 142
-4.71957 214.529 -94.6264 0.272736 0.00509944 -0.962075 176 172 141
-22.14 216.139 -94.5584 0 0 1 177 177 181
-4.47446 238.149 -94.589 0 0 1 18 19 18
-27.968 215.705 -94.4525 0 0 1 178 182 181
-13.821 227.674 -94.7159 0 0 1 156 156 159
-17.804 237.052 -94.6106 0 0 1 166 176 177
-21.7535 234.452 -94.7162 0.783865 -0.194965 0.589529 179 187 189
-19.8494 235.204 -94.5614 0 0 1 174 183 185
-23.9669 233.953 -94.5851 0 0 1 226 226 228
-6.32674 225.977 -94.5472 0.253249 0.858862 0.445221 164 155 118
-25.896 238.598 -94.6301 0.691829 -0.339187 -0.637436 159 153 116
-10.6151 223.443 -94.5409 0 0 1 113 117 74
-16.6459 243.19 -94.572 0.915458 -0.150393 0.373254 165 165 167
-13.7637 220.535 -94.6085 0 0 1 163 164 168
-6.01863 217.613 -94.5692 0 0 1 161 156 125
-18.8937 233.169 -94.5585 0 0 1 162 162 166
-13.6043 242.075 -94.5629 0.465677 -0.52383 -0.713266 139 147 100
-12.6041 241.843 -94.4933 -0.616241 -0.725484 -0.306463 129 129 89
-25.1193 223.613 -94.6728 0 0 1 177 172 133
-6.24996 227.378 -94.6434 -0.181719 0.434449 -0.882175 138 131 95
-22.1362 215.076 -94.5275 0.26522 0.95327 0.144687 166 167 168
-13.4128 240.907 -94.5206 0 0 1 140 140 100
-8.7305 231.592 -94.6275 0 0 1 155 136 101
-20.8355 219.947 -94.5099 0.237468 0.331385 -0.913123 210 211 218
-27.2967 237.715 -94.591 0 0 1 158 163 118
-9.208 220.559 -94.5793 0.0893185 0.639782 -0.763349 148 141 114
-26.842 236.15 -94.588 0 0 1 194 194 163
-5.32844 217.582 -94.6062 -0.328363 -0.298061 -0.896291 176 169 137
-6.1585 230.014 -94.6755 0 0 1 170 152 113
-4.52003 232.571 -88.5438 0 0 1 129 151 93
-12.6177 216.348 -94.6258 0 0 1 161 161 163
-23.6805 232.17 -94.659 0 0 1 218 224 225
-15.9661 242.612 -94.704 0.719842 -0.631339 -0.288512 185 166 155
-11.8234 238.744 -94.5684 0 0 1 162 156 118
-18.0323 243.038 -94.6224 0 0 1 158 160 162
-8.48442 214.698 -94.6552 -0.120435 -0.220203 -0.967991 132 125 93
-4.74807 240.41 -94.5438 0.776854 0.414421 -0.474082 172 166 142
-13.596 224.472 -94.6079 -0.146007 -0.390825 -0.908811 162 160 163
-12.227 239.245 -94.5091 0.571234 -0.635127 0.519909 177 167 132
-14.0194 231.266 -94.6545 0 0 1 160 160 162
-8.466 221.157 -94.5928 0.434403 -0.435866 -0.788236 151 143 117
-25.4626 230.073 -94.695 -0.0136268 0.188538 -0.981971 203 202 169
-14.1273 232.363 -94.5974 0.870076 -0.396346 0.293049 165 164 165
-22.7941 244.272 -94.6889 0 0 1 167 172 175
-12.017 229.013 -94.6617 0.126139 0.0775276 0.988978 119 125 79
-12.5662 225.753 -94.6259 0.717437 0.0979541 -0.689702 167 166 167
-23.9776 240.263 -94.5428 0 0 1 179 187 189
-16.0238 216.622 -94.6313 0 0 1 163 163 167
-20.2499 237.241 -94.5674 0.191863 0.658062 -0.728109 172 181 183
-21.0337 235.068 -94.5579 0 0 1 176 185 188
-4.73374 224.736 -94.6054 0 0 1 138 132 98
-16.474 222.592 -94.5561 0 0 1 164 167 170
-16.2448 236.602 -94.6081 -0.245912 -0.95908 -0.140333 162 163 167
-13.9168 220.621 -94.6214 0 0 1 162 165 169
-23.3607 232.447 -94.6446 0.793198 -0.281239 -0.54013 198 196 197
-22.9168 239.316 -94.5779 0 0 1 178 187 189
-27.6279 214.492 -94.5162 0 0 1 171 176 174
-12.1595 220.681 -94.7088 0 0 1 162 162 164
-14.796 223.067 -94.6076 0 0 1 164 165 169
-7.46717 238.616 -94.0119 0 0 1 68 108 98
-13.1273 239.135 -94.5968 0.926165 0.145904 0.347751 161 156 120
-11.0842 226.362 -94.5713 0.276561 0.347313 -0.89604 120 118 80
-4.91114 230.135 -94.5941 0.226742 0.545486 -0.806866 148 138 101
-28.1692 223.971 -94.5004 0 0 1 109 137 184
-20.174 232.595 -94.6677 0.886077 -0.26792 -0.378268 170 177 183
-21.7948 240.8 -94.6748 0 0 1 173 181 184
-17.3491 225.135 -94.57 0 0 1 162 165 170
-8.78895 243.655 -94.513 0.814884 -0.0842961 -0.573462 42 43 34
-18.8817 225.237 -94.6582 0 0 1 164 167 171
-26.2284 216.246 -94.5789 0.0527891 -0.964425 0.259034 181 182 184
-24.2282 239.318 -94.6467 0 0 1 176 184 186
-10.7687 225.573 -94.5647 0 0 1 151 147 107
-22.6045 241.424 -94.5847 0 0 1 173 182 184
-20.2342 224.034 -94.6027 0 0 1 163 162 167
-4.21462 236.921 -93.743 0 0 1 107 130 162
-4.94097 236.576 -85.8776 0 0 1 40 48 29
-9.31842 231.643 -94.5906 0.641365 -0.551013 0.533888 149 135 101
-14.2857 217.509 -94.6264 0 0 1 164 164 168
-12.3616 227.411 -94.5602 0 0 1 164 153 142
-21.4428 244.2 -94.6161 0.00347994 0.246466 -0.969145 165 169 171
-7.94679 216.65 -94.6022 0.491673 0.575201 -0.65376 134 129 97
-16.8426 232.801 -94.5739 0 0 1 160 161 165
-14.4526 215.076 -94.5913 0.17577 -0.839984 0.513354 163 166 169
-5.80007 224.687 -94.5986 0 0 1 156 143 109
-13.5508 237.133 -94.542 0 0 1 180 174 140
-19.1846 218.276 -94.5951 0 0 1 161 162 166
-23.7844 228.03 -94.6029 0 0 1 215 217 216
-14.5421 236.861 -94.5883 0.582993 -0.488456 -0.649254 163 155 130
-12.2172 243.391 -94.4995 0 0 1 111 106 78
-5.50998 233.866 -94.3687 0 0 1 110 110 97
-19.042 234.543 -94.6276 0 0 1 172 177 181
-27.2134 234.494 -94.6226 0 0 1 171 175 133
-14.5577 237.595 -94.5643 0 0 1 146 139 109
-25.2811 234.835 -94.6506 -0.477614 0.438671 -0.761218 159 166 122
-6.20521 222.106 -94.5677 -0.282814 -0.478144 -0.831501 142 138 103
-9.69353 231.492 -94.5924 0.965795 -0.0324537 0.25727 160 149 114
-16.9373 235.415 -94.5558 0 0 1 160 161 164
-13.7826 221.492 -94.6459 0.410435 0.893569 0.181874 163 164 168
-7.0132 220.311 -94.5703 -0.0125739 0.167743 -0.985751 141 143 106
-24.0598 224.157 -94.605 0 0 1 174 166 130
-17.0806 220.672 -94.6198 0 0 1 160 161 165
-13.3971 234.084 -94.5407 0 0 1 141 140 98
-26.6619 214.611 -94.4467 0 0 1 170 176 172
-22.4003 244.258 -94.595 0 0 1 165 169 172
-25.2754 238.874 -94.5901 0.196303 -0.348915 -0.916364 219 213 213
-12.4927 238.623 -94.5439 -0.16649 -0.517475 -0.839345 174 170 135
-12.9224 242.388 -94.5241 0 0 1 137 136 95
-25.2086 240.262 -94.6867 0 0 1 179 182 180
-23.5275 215.002 -94.5126 0 0 1 192 188 180
-23.5643 225.801 -94.5846 0.550894 0.618505 -0.560328 169 162 142
-5.49284 234.547 -86.2066 0 0 1 91 109 66
-8.16764 221.674 -94.564 0 0 1 139 139 106
-29.1039 241.048 -94.6292 -0.428627 -0.389215 -0.815347 196 198 161
-12.0514 224.982 -94.64 0.785599 -0.580807 -0.2133 179 177 173
-28.1298 238.84 -94.706 0.238308 -0.862022 0.447356 154 161 111
-27.7545 239.321 -94.6755 0.3382 0.440876 -0.831414 156 162 114
-6.74988 222.78 -94.5919 0 0 1 148 141 108
-29.0324 217.188 -94.5696 -0.630323 0.77136 -0.0877258 168 169 171
-8.85418 235.788 -87.9357 0 0 1 39 44 28
-21.5479 235.188 -94.7723 0 0 1 161 162 166
-18.4026 231.195 -94.5892 0 0 1 162 163 166
-7.66646 242.609 -94.53 0 0 1 60 61 62
-27.7975 216.121 -94.6249 0 0 1 179 184 184
-18.4554 232.825 -94.5406 0.326372 -0.255134 -0.910158 161 162 165
-16.5117 220.144 -94.5956 0.283088 -0.571935 -0.769904 162 163 167
-10.5894 216.471 -94.6847 0 0 1 175 177 175
-13.2276 228.664 -94.7146 0 0 1 166 164 165
-10.5745 227.476 -94.5311 -0.614425 -0.621996 -0.48539 135 132 94
-23.8825 239.879 -94.7725 0 0 1 168 171 174
-10.5024 220.73 -94.6727 0.25286 0.202716 -0.946027 139 124 107
-19.9349 215.162 -94.4942 0 0 1 215 220 228
-28.1291 234.822 -94.7519 0 0 1 155 160 116
-13.4221 236.426 -94.5116 -0.674449 0.626804 0.390174 171 167 132
-27.7547 222.521 -94.5081 0 0 1 160 162 166
-9.17363 220.501 -94.6246 0.0893185 0.639782 -0.763349 150 149 118
-12.6372 221.724 -94.6984 0 0 1 162 162 166
-28.8111 228.731 -94.4901 0 0 1 200 215 226
-19.1892 244.215 -94.593 -0.188113 -0.818092 -0.543452 161 166 167
-11.2243 226.268 -94.5778 -0.429716 -0.0774553 -0.899636 116 117 75
-23.2947 232.657 -94.6266 0.0914068 0.915935 0.390779 184 188 190
-28.1539 215.848 -94.5394 0 0 1 178 182 182
-7.48941 234.801 -86.9119 0 0 1 92 113 69
-25.7151 229.236 -94.7086 0.835658 -0.200013 0.511538 195 195 166
-4.47342 238.876 -94.6708 0.886211 0.463197 -0.00888396 107 98 72
-17.8684 216.498 -94.5824 0.414024 -0.281142 -0.865762 163 164 168
-27.0936 224.651 -94.6295 0 0 1 170 174 124
-27.3297 227.512 -94.7505 0.492682 0.301727 -0.816226 182 187 141
-14.1574 220.23 -94.6418 0 0 1 167 166 171
-5.70454 218.772 -94.5901 0.577058 -0.265416 0.772372 166 161 131
-17.8739 238.122 -94.5432 0 0 1 169 177 180
-5.15716 228.421 -94.6012 0 0 1 167 148 110
-13.4077 236.541 -94.5421 0 0 1 174 171 139
-12.1531 237.974 -94.5557 0 0 1 183 179 142
-26.044 219.374 -94.445 0 0 1 165 163 176
-5.04959 216.214 -94.6634 0 0 1 171 166 134
-10.5325 223.195 -94.5939 0 0 1 116 119 74
-28.5268 237.516 -94.7814 -0.525085 -0.30959 -0.792742 160 165 123
-20.4146 244.397 -94.6477 0.903868 0.205926 -0.37499 163 166 168
-4.4863 234.249 -94.3203 -0.59896 0.788008 0.142443 96 93 79
-28.3072 237.614 -94.7111 0 0 1 172 178 139
-24.8155 225.542 -94.596 0 0 1 194 190 158
-29.0743 230.276 -94.6752 0.138541 0.985255 -0.100391 226 226 232
-13.1785 214.729 -94.6209 0 0 1 164 163 166
-22.7972 224.508 -94.5681 0.955854 0.160588 0.246078 226 222 216
-17.9877 242.021 -94.6154 0.287641 -0.156576 -0.944853 164 167 169
-19.031 220.232 -94.5686 0 0 1 161 164 167
-5.04421 243.192 -94.513 0 0 1 63 60 55
-24.7854 217.397 -94.5553 0 0 1 185 182 179
-27.1229 238.838 -94.6065 0.991113 0.0855706 -0.101846 176 177 138
-12.2356 228.046 -94.6419 0.0834341 -0.702423 -0.706852 128 115 98
-8.40582 231.568 -94.6243 0.0938876 -0.0745038 -0.992791 160 148 113
-8.23865 234.066 -94.451 -0.000894993 -0.442123 -0.896954 88 93 68
-12.0016 234.834 -94.5255 0 0 1 146 140 103
-23.1305 217.594 -94.5327 0 0 1 168 170 171
-12.4525 231.625 -94.6192 0 0 1 135 140 94
-25.5086 229.632 -94.5333 0 0 1 210 206 178
-26.9727 228.737 -94.8212 0 0 1 201 203 167
-12.4057 215.581 -94.6704 0 0 1 162 161 163
-28.6352 237.761 -94.6802 0.703714 0.561138 0.435788 160 169 127
-17.5308 238.878 -94.5697 0 0 1 164 167 170
-25.6482 235.772 -94.5436 0 0 1 155 162 118
-8.68069 219.47 -94.5104 0 0 1 132 126 100
-9.01377 219.985 -94.5974 0 0 1 135 130 108
-28.2035 240.982 -94.6712 0 0 1 186 189 154
-5.32895 233.583 -94.3317 0 0 1 108 119 116
-20.4647 231.43 -94.5204 0 0 1 165 165 170
-10.4293 221.016 -94.6409 0.931295 -0.362694 -0.0338103 129 119 94
-7.35705 223.111 -94.5931 -0.553532 0.122498 -0.82377 146 138 105
-12.2688 241.473 -94.5327 0.803189 -0.318044 -0.503722 137 132 94
-16.5874 223.263 -94.5543 -0.0411613 -0.129152 0.99077 166 168 171
-25.6831 221.53 -94.5483 0 0 1 151 141 115
-17.8225 216.507 -94.5634 0.377222 0.0803005 -0.922635 163 164 168
-22.4907 227.752 -94.5854 0 0 1 204 207 211
-17.6893 239.584 -94.6069 0 0 1 161 165 168
-22.9503 242.742 -94.7313 0.573441 0.198983 -0.794715 163 167 170
-19.3272 242.011 -94.6131 0 0 1 164 165 168
-7.45977 242.632 -94.5368 0 0 1 63 64 63
-29.1315 222.502 -94.5544 0 0 1 172 175 133
-16.7695 234.363 -94.5417 0 0 1 162 161 166
-12.7372 221.33 -94.5781 0.382079 -0.25201 -0.889104 162 161 166
-28.1915 241.524 -94.6962 0.906335 -0.352512 -0.233004 174 171 138
-13.673 224.905 -94.6241 0 0 1 161 160 165
-21.1153 214.572 -94.5855 0.50912 0.672702 0.536906 174 174 178
-8.74296 216.835 -94.6299 -0.0733189 -0.228831 0.970701 121 125 83
-16.338 223.462 -94.6049 0.80282 0.251374 0.54064 166 167 172
-14.5316 220.281 -94.5915 0.0628232 0.988269 0.139206 166 167 171
-23.0756 219.695 -94.5924 0.394825 -0.0025231 0.918753 164 163 163
-12.5248 226.82 -94.6474 0.708228 -0.0696801 -0.702536 187 183 184
-17.4593 237.166 -94.5587 0 0 1 169 177 179
